ply
format ascii 1.0
comment VCGLIB generated
element vertex 1813
property float x
property float y
property float z
element face 0
property list uchar int vertex_indices
end_header
27.3651 2.24319 -47.201 
2.97559 27.6527 -21.0113 
-10.8261 -51.6695 -14.4335 
1.88315 51.8962 22.4964 
15.796 -38.7165 -39.2254 
6.77221 -50.2011 -9.53726 
-10.2293 10.0782 38.8999 
-22.0826 12.551 32.3595 
-5.07426 -16.2265 -41.6307 
-4.0366 -4.57509 28.1037 
15.6466 28.0097 -17.4146 
-15.0605 43.9781 32.133 
3.90875 9.71857 -42.5564 
11.2493 -37.0981 -53.8817 
9.85885 17.8638 -57.3469 
29.6004 -41.1255 -51.4242 
-26.9191 22.2932 -5.34908 
19.745 -13.3386 -23.8393 
10.9664 25.4982 -19.7992 
-15.6767 -17.2976 -16.3227 
-9.38657 49.1036 -0.945366 
23.1143 -38.9532 -31.9018 
-24.127 45.7181 25.3525 
-19.4246 0.831762 24.5253 
26.3171 32.4449 12.3706 
-22.4969 0.576791 -40.3798 
2.83556 -44.2693 10.5766 
-4.73009 17.5885 -36.0046 
18.4881 3.17705 -8.43295 
3.72604 21.2376 -30.8384 
18.5528 12.5413 -58.4176 
15.3381 23.6053 -44.358 
12.0771 6.98263 54.8332 
-2.56177 33.0787 40.8477 
3.42985 50.9887 24.6875 
-5.14261 -23.5277 -40.0406 
7.16863 -8.47297 16.222 
-6.6883 43.8666 -9.77146 
-15.8833 30.9028 -15.5059 
-5.38457 -3.12385 -44.5195 
-30.3886 -48.063 -45.8265 
25.6525 26.205 19.6605 
23.1409 38.986 7.68605 
23.7798 -41.5503 -29.8873 
-11.8231 -45.64 -8.29882 
14.749 24.2768 40.5282 
20.1517 -10.6218 -29.0177 
17.4956 -43.4925 -15.6275 
4.30633 -28.3968 0.32496 
22.5354 23.8242 -43.1986 
23.6909 7.90451 20.0417 
-12.9106 1.14902 -51.8346 
-6.64385 -48.3144 5.00808 
-22.9468 -50.1077 -56.6101 
9.41415 -2.20048 28.1106 
-0.96568 25.3566 43.7087 
15.461 5.48226 -57.3505 
-32.6651 -38.6253 -51.7642 
3.133 -58.6021 21.6885 
9.77093 18.4287 55.6367 
-0.473967 46.7892 -7.8675 
24.9602 -54.2367 -38.6733 
-27.4939 42.3337 17.1202 
25.5705 -44.3674 -44.8735 
-30.5835 31.1642 16.0185 
2.64978 3.12286 40.5177 
1.27553 -3.78011 -43.8825 
0.317783 -22.9241 -40.4692 
-9.46621 -4.35199 25.9368 
18.9952 26.3997 -16.0961 
19.0031 -4.433 -14.5977 
-23.9433 12.6909 -41.2834 
-7.87192 -5.09662 0.00470586 
-11.0738 18.7294 -30.113 
-24.9524 10.4804 -56.3522 
29.095 8.48497 -40.2012 
-23.2176 20.4639 -43.8674 
-28.9466 -38.9733 -46.7886 
18.9103 -10.5107 -13.276 
-12.1504 -16.8445 -11.2041 
21.9893 -45.8283 -25.4389 
-11.7746 -39.5548 -43.3472 
-2.62262 -49.1703 17.2336 
-29.7862 10.7578 11.2097 
18.5027 -59.3184 -33.7858 
4.20438 -51.3532 22.9684 
12.6696 20.2045 -26.7875 
13.0932 15.8596 -58.2668 
-6.26676 -53.9523 -18.7674 
-4.77063 10.7781 -50.2496 
-18.2349 5.48008 -6.72186 
5.41615 -8.76581 16.8205 
2.56985 52.4755 20.6278 
17.7997 -63.5313 -44.7543 
19.0737 -47.0543 -20.864 
-14.3224 -29.5609 -12.9961 
3.10695 29.1478 -20.8158 
11.8186 17.788 -34.3777 
-15.191 8.66868 -14.4229 
18.5289 -9.80094 -36.7666 
12.3778 15.0581 45.2656 
8.41394 -6.47751 21.7514 
5.21259 -2.857 29.6202 
28.7639 29.4672 -55.9417 
1.4035 27.9298 -21.0038 
25.1998 -35.5386 -50.7764 
21.1718 2.84065 -2.71195 
-17.8548 -54.656 -55.7978 
-0.29318 31.2026 41.8355 
-4.38292 12.707 -43.6908 
25.5383 -35.3363 -55.8472 
-9.07882 -53.3693 -17.2735 
23.7741 -41.1235 -31.2026 
-2.92814 2.9809 37.4227 
2.16433 46.135 32.2423 
7.84393 15.4638 56.2795 
-10.3687 -29.7051 -37.8869 
19.5405 -37.1896 -57.6406 
17.5778 -39.8181 -44.2879 
-17.22 -33.2443 -48.2059 
-22.8836 -31.5899 -49.2185 
-10.6135 13.2417 39.7949 
18.1871 16.5393 -22.4846 
-20.3359 -38.8324 -43.6043 
16.0644 32.245 -49.6487 
-7.6078 -20.603 -5.75111 
-28.0006 39.1012 10.7996 
20.5803 -3.0164 7.51363 
4.0173 -49.1991 -38.0578 
-27.5717 41.3099 17.504 
8.53009 -37.1078 1.71034 
14.269 15.604 56.2505 
12.3138 -36.3793 -51.6206 
12.1448 -54.8753 -56.1763 
-23.9056 4.84783 23.5041 
-6.91219 52.6492 6.67291 
0.572542 2.74834 38.7095 
-21.5931 19.6621 -11.6239 
-4.99192 -6.21666 24.8677 
17.3984 -12.5622 -34.9453 
-3.27986 -41.1766 -37.8772 
-3.72012 13.1286 43.7447 
-20.7352 -53.1727 -26.7344 
-22.2046 6.50254 28.1679 
-3.57822 -9.16314 13.4349 
6.21713 -33.8578 1.70911 
14.1177 22.6043 43.1513 
-8.00158 13.6697 -56.954 
-15.4075 -28.5941 -15.1033 
-14.3095 16.5941 -27.0024 
-18.1665 -11.8443 -25.9558 
-24.2874 49.1414 25.5132 
-14.0024 49.977 4.25424 
18.3859 -42.0402 -16.4253 
30.0219 -50.2103 -51.7834 
-2.61848 -45.4312 11.32 
24.5174 39.4655 11.8203 
23.2206 -3.01949 -44.1939 
1.57179 52.4702 20.6795 
21.6921 4.54604 -57.4624 
14.6639 48.9043 20.6778 
25.9009 27.932 10.9253 
13.4147 -9.87601 -40.4919 
-24.0607 2.15343 8.0207 
24.2065 38.7008 22.182 
-6.18291 -38.6923 1.05096 
-17.0958 -51.0036 -19.5705 
18.4393 -4.15525 12.381 
-17.1369 33.274 -50.3606 
5.9718 -57.7241 11.4971 
24.9536 6.85959 -57.868 
-3.02379 36.6578 39.1232 
-11.7558 32.4573 -51.5751 
3.64229 21.5266 48.6967 
-4.19187 -51.3523 -31.0602 
24.8979 -34.7077 -51.9523 
-31.6715 26.79 11.7878 
-15.5343 15.9478 38.0686 
-33.4893 -42.8154 -53.3603 
-2.92486 -56.4867 7.93572 
6.81627 21.3368 51.3083 
0.28857 22.0569 45.7038 
9.80741 43.1293 33.5482 
-13.1339 37.2083 35.4386 
-20.6871 -0.376418 5.21826 
9.23898 5.0254 -49.1732 
-25.712 55.3481 23.031 
13.5346 12.0069 37.0928 
-20.4902 45.7503 2.14629 
-18.7898 14.0333 -30.181 
-13.9616 51.2318 12.0347 
20.4222 37.482 -0.906381 
-11.8142 -39.5241 -47.2994 
31.8887 14.2088 -56.0266 
17.8362 -34.8995 -12.9879 
-10.772 -1.65541 -47.5362 
31.2824 26.0773 -49.9669 
20.459 -2.01662 13.9724 
-10.5707 29.7668 -55.5274 
0.492268 -29.4448 -39.1397 
-14.2805 3.54882 -9.28664 
-9.25804 -40.5404 -2.92672 
23.5828 -0.118458 10.1302 
23.3851 41.0192 11.0668 
27.6871 -48.9151 -46.0238 
-24.7731 51.2213 25.043 
8.44924 -51.7431 4.53471 
-8.16418 16.3257 41.4458 
26.7075 17.1728 11.3319 
15.3349 -23.9031 -6.82759 
-12.9502 -34.548 -9.61657 
-20.1239 -31.9081 -22.6382 
-6.56999 -45.407 -40.1881 
15.6635 -17.8925 -33.6666 
19.8948 -39.6936 -57.8375 
28.1393 20.8257 -8.91577 
8.05423 -53.2644 6.00007 
20.4562 21.7636 -42.7133 
-7.53963 -5.61775 -7.01544 
-30.0068 11.6243 14.7657 
10.7561 -45.0828 -0.651561 
20.0634 -30.0277 -19.1058 
13.4019 -35.7094 -51.0598 
-18.2889 -53.795 -24.2199 
-19.3931 33.035 -11.3345 
21.3471 -32.9978 -30.0568 
-16.7771 44.4795 -2.60211 
-13.0162 -3.29498 -46.7141 
-18.7989 -59.4339 -34.5964 
26.4747 26.7846 -58.4327 
30.8939 20.9702 6.04984 
-1.28868 -50.2565 -31.1866 
9.17802 -49.1144 2.63023 
-28.5492 18.4932 26.2832 
24.6023 30.6523 -11.1919 
-25.2961 -45.6622 -33.8417 
-18.6374 -5.07272 -41.4388 
14.1739 -5.12273 17.8583 
-23.4393 57.2734 16.4072 
-13.8812 -24.1135 -12.9109 
-1.81923 21.2105 -30.9756 
4.08442 23.7268 47.1963 
-16.995 21.3885 -15.6395 
-20.4802 56.4112 14.868 
17.4031 44.7595 5.785 
-17.0265 -3.62636 16.5354 
-8.39096 38.6276 36.6635 
26.2263 -53.2612 -42.4591 
-22.3317 20.0841 -43.1614 
-33.4875 -43.1771 -52.6964 
0.860944 25.4536 44.3261 
-19.4635 -44.0446 -19.3886 
24.6745 35.6588 23.2397 
-3.72786 -8.66401 17.3629 
21.6043 8.19782 -21.8657 
-21.1847 -50.4866 -56.4972 
25.8227 13.0866 -6.44575 
-27.548 7.0186 16.1386 
-8.57854 35.2218 -17.3481 
22.1698 -34.5651 -29.9611 
-23.0899 50.1844 8.6264 
11.4368 46.7367 -0.0259444 
11.5151 22.3508 51.4315 
31.8054 10.8273 -52.423 
21.2667 -5.15587 -42.2183 
28.7509 -41.9549 -57.6762 
19.6349 -12.193 -28.2508 
-26.3583 44.8314 21.0535 
26.3903 9.92607 15.497 
18.5332 36.8969 32.2064 
-24.1135 -59.1985 -39.8661 
12.7738 -62.369 -41.16 
-19.4331 6.78652 -23.9636 
-19.8053 -1.26997 5.74151 
-2.03397 41.3436 36.3045 
29.6556 5.84838 -47.2511 
-17.2945 33.3904 -51.3267 
-19.8497 -39.5565 -57.2188 
27.3501 13.8557 11.5206 
3.26689 43.6897 34.571 
19.2671 32.0695 -56.655 
1.55949 35.552 -19.3082 
-22.5729 12.4426 -36.7167 
-16.7203 55.9634 30.8907 
12.5691 16.6617 44.6711 
17.7504 -46.2028 -18.1995 
8.97631 -7.43421 4.96347 
10.4303 -4.83208 -0.231927 
-26.1191 37.9073 24.1499 
-4.53788 11.3747 -49.1057 
24.6671 8.00307 -3.10197 
4.46528 -9.3616 12.5729 
9.6424 -59.8199 -49.845 
21.1459 33.4182 -12.0906 
17.9862 -8.68818 -10.9245 
-18.113 5.15823 -56.4017 
-21.0837 2.57276 0.136057 
-30.6384 26.3283 21.0096 
-10.3507 18.4686 -35.5148 
-33.0631 -45.6972 -54.6921 
-10.3982 22.5734 -43.592 
-11.9718 41.9939 -9.14511 
12.9512 8.35785 43.5107 
-29.1595 -55.1345 -48.0866 
-30.0585 -36.4334 -56.8617 
-4.8758 16.5199 -54.323 
-24.6058 2.47806 10.6672 
-0.513907 -53.9858 -21.3146 
-4.72912 21.5612 -53.9255 
-10.81 30.4138 39.2875 
-11.1007 -22.1532 -9.24765 
25.5731 28.1261 -11.3615 
-15.4738 29.9427 -16.1767 
10.9659 -1.51256 -45.7333 
-7.32849 29.1346 -50.8038 
17.8338 -30.9701 -32.5887 
-26.018 -58.3943 -48.7309 
-21.0385 39.2615 29.7755 
13.5412 -35.1774 -52.3705 
22.7874 16.457 -36.2873 
-28.9957 13.5687 1.64288 
26.1884 33.8224 15.8208 
-9.36363 -6.2755 21.4759 
28.1496 21.672 8.34822 
22.3263 -0.859943 -48.749 
-6.86381 28.7462 -51.5226 
-16.4728 -6.69846 -41.2913 
7.90286 46.451 -6.47431 
32.672 23.7444 -52.3535 
-3.53689 -10.8649 -4.80055 
20.7276 18.9322 -14.7397 
-20.0753 8.08688 -57.3316 
-14.4359 -42.4258 -10.7592 
0.798529 -24.9203 -0.4683 
-31.2387 14.6644 10.434 
0.970932 -54.0513 -23.1506 
31.6085 22.5589 -48.3427 
-7.42736 3.39038 -49.2166 
10.25 24.4874 48.4729 
25.849 27.0669 10.734 
-13.4487 -14.2808 -13.2618 
25.7568 -37.4245 -49.1504 
6.35164 -40.9083 5.39359 
-30.0815 30.8679 6.41813 
9.57835 -8.28416 9.62968 
7.38052 -19.622 -1.52166 
7.55233 45.2207 -10.2661 
8.7423 9.97477 -51.1777 
-24.2005 -59.1672 -49.8704 
21.5441 -1.86356 11.4582 
26.1911 34.662 14.5404 
-29.8803 19.4418 0.85054 
-8.67847 -25.2385 -5.95616 
11.4887 29.4759 -51.3379 
2.94479 -51.8128 -34.1371 
-18.1263 -12.0119 -25.0555 
-9.28929 -7.56111 -8.83458 
-25.081 -31.8347 -49.7472 
-14.8901 26.1714 -43.4597 
-25.1744 -53.3503 -34.254 
-22.0661 29.3789 -56.5513 
-11.3072 -51.1061 -13.8176 
-28.0936 39.48 13.0817 
0.0566339 -41.2728 -37.1445 
28.3241 -37.5944 -52.623 
-28.3787 7.9662 13.1352 
-16.2087 -52.1606 -56.1192 
-22.224 -31.9913 -48.728 
20.6982 32.2311 -56.5774 
15.2999 48.2102 8.28562 
17.9891 -52.6236 -23.9893 
8.09853 45.5732 -9.02761 
-21.2063 53.6142 29.291 
11.2103 45.1917 -3.32865 
-9.07106 20.2513 -25.1652 
-26.2724 49.6364 14.503 
-5.63284 26.6891 -52.7759 
7.90123 -22.0525 -1.34492 
-6.33007 19.4015 42.4092 
3.36954 -0.505476 33.8296 
16.7658 9.57644 -58.3179 
8.28011 22.1902 -55.1755 
16.4419 -41.0985 -11.4867 
6.34526 7.22351 52.1663 
-10.4634 -55.7065 -24.5276 
4.16215 38.3826 38.3708 
-20.9573 13.8797 -10.3083 
-15.11 13.0956 -20.1346 
-14.7909 33.0663 -53.233 
-7.11555 42.6893 34.3879 
-16.5873 3.44715 -6.0722 
-1.30892 13.7703 -39.9451 
13.5641 -14.4888 -5.12025 
16.8137 -61.6939 -54.485 
-2.7611 -36.6161 2.95242 
26.5058 15.1382 12.8852 
-16.3901 -52.9317 -56.0152 
13.2076 -62.2776 -39.8929 
-18.972 23.3592 -14.4037 
-7.94426 2.84007 -49.3817 
7.53647 -55.1812 15.1737 
-8.79764 46.2687 -5.52729 
-11.2813 -0.0404843 -49.4635 
-27.8215 23.5158 -55.9969 
-28.0583 19.3425 -3.11719 
-0.487316 -51.1224 -8.08574 
-0.240249 53.8921 11.997 
12.0806 50.8319 10.995 
-18.1138 23.9829 -15.1128 
-15.4549 3.6253 -7.41266 
24.2005 20.7404 -42.7193 
21.0457 37.5489 -9.00335 
24.4568 -49.6846 -33.9386 
14.7997 -1.24489 -48.3151 
-29.7844 -53.9474 -47.521 
6.41266 -19.137 -40.2497 
18.4781 -25.2416 -14.9044 
4.22486 -38.4809 -37.7669 
0.770812 -59.6125 17.0597 
-4.92626 -51.1802 0.505581 
8.07443 -44.973 -55.0027 
-15.4209 -51.7263 -56.0796 
3.84802 53.5048 13.7905 
-3.55124 -53.7698 -23.5842 
-5.07013 28.6521 -20.4526 
-19.9421 -44.2344 -20.3202 
-25.9187 8.53057 24.3919 
-24.0452 1.9202 13.9503 
26.8886 -41.4988 -58.2019 
14.6154 -63.5082 -47.2813 
12.8221 12.6962 47.3167 
-9.39019 49.8689 0.49457 
-7.88627 49.6364 31.2178 
17.8755 -4.13278 13.8994 
-6.74759 -8.20438 7.20267 
-8.31027 10.7075 -56.8728 
-7.76735 24.4867 -46.266 
8.43999 14.0489 -52.1379 
12.1541 47.4855 27.0239 
-9.74429 -27.7941 -6.61016 
-8.37528 21.7101 -44.6067 
-2.87702 13.5644 44.5982 
19.5768 33.508 -13.0285 
-11.1356 -53.1103 -52.9502 
19.0576 -7.61334 -14.7108 
1.85654 -50.7598 -32.9571 
-22.5858 1.24111 -44.2075 
-1.54228 -56.3752 23.4146 
-15.7596 -21.3658 -16.3122 
0.188917 -59.5021 18.805 
-15.5771 3.10134 -15.7085 
-2.95143 -57.1656 9.7189 
10.8314 3.14843 39.8789 
-12.8673 13.9629 -57.6249 
-4.99032 -26.6637 -39.4446 
8.48336 13.1582 -50.5569 
-24.7439 38.3765 0.210097 
-8.18525 8.73477 39.2144 
25.5281 35.7044 9.58048 
-13.9164 -47.3735 -56.3144 
-11.3862 -47.6497 -55.4233 
-11.7987 39.711 -11.8365 
27.2547 21.924 9.1028 
26.9124 16.3434 11.2671 
-2.49798 -50.904 -6.50457 
6.82548 -48.7401 -51.0187 
17.9607 -62.9976 -42.0135 
-13.4501 -36.6664 -56.2786 
-27.4946 31.7496 -0.567186 
3.55793 -57.8627 8.41466 
-26.4686 34.1 -0.770669 
-14.8236 24.2804 -57.4759 
-16.1081 -20.4331 -17.0208 
31.1783 9.29965 -52.3437 
-14.9319 47.2466 31.8694 
24.5489 -58.5038 -44.4281 
-15.4118 31.9447 -47.18 
30.3542 12.1811 -56.9944 
-14.868 55.318 31.1095 
22.2965 32.9676 -11.6338 
-11.7339 -9.06361 -11.4638 
-12.5072 -2.04506 -47.9166 
-26.0475 22.3549 30.1974 
9.34335 -60.166 -42.5616 
-22.7712 1.36496 18.3599 
-10.6494 -39.0897 -5.22134 
9.04127 -16.9591 -2.38895 
6.38208 16.3991 -37.4642 
16.1018 48.6272 16.6304 
-17.8326 -21.339 -29.4321 
23.1156 -0.453465 10.8485 
-20.7752 -36.1244 -45.701 
-27.4993 -50.525 -39.326 
11.341 44.5738 -6.00362 
17.3355 -30.5554 -11.8477 
-16.34 38.0553 33.3576 
22.1357 -33.8389 -51.4233 
9.0177 -0.162645 31.8958 
23.4491 16.5758 -37.69 
14.4101 -5.06143 -6.29476 
-9.28708 19.3672 -30.3822 
-12.9824 -26.5554 -11.2083 
17.6866 -33.6954 -55.0871 
-25.639 19.419 -57.4956 
25.1444 21.5954 -58.6799 
-15.588 46.7496 -0.579409 
12.9877 22.1609 50.2086 
-22.523 -51.7076 -28.3363 
8.25145 -6.19159 -2.87064 
-23.2719 1.04614 9.9264 
8.9841 34.5933 -18.7833 
-21.2653 1.0085 -29.2349 
13.5521 -3.43937 -4.65806 
18.9139 -33.3329 -54.8856 
-14.87 5.98988 -11.6303 
-0.562206 31.1305 -20.6019 
-19.6282 6.32897 -6.28404 
-22.516 13.2778 -37.7051 
1.0836 47.1709 31.095 
-2.93122 22.5907 -26.3935 
5.45286 -54.4201 -40.8687 
9.90665 -47.1888 -0.320352 
-23.4314 -37.2366 -31.4358 
0.306508 -53.4169 -16.7011 
22.2408 0.168459 2.05943 
-15.1653 12.3835 -19.1657 
21.5497 13.7069 -58.5094 
-10.5066 51.1827 16.581 
22.8802 -1.07334 8.64986 
14.2628 31.8227 -51.0019 
33.027 19.161 -55.3672 
24.0757 -53.76 -35.507 
-20.5465 3.98776 -2.53229 
-6.06124 22.9347 -47.6561 
-29.1502 20.8129 -1.13696 
28.364 -55.2154 -52.1943 
-3.15651 34.394 -19.3041 
27.3922 5.43592 -55.5603 
23.4684 -0.464099 8.49803 
29.5597 16.0712 7.16958 
-12.6996 -36.5367 -55.5811 
-8.70008 -28.7639 -5.22285 
9.45678 -25.3103 -1.6223 
26.6326 30.9889 -56.0093 
-26.2865 41.7522 7.40925 
-15.6529 25.5494 -57.4435 
-17.4658 11.7909 -24.0969 
-7.93059 -31.5102 -38.5885 
-6.52356 49.8446 -1.25889 
-21.7727 -59.0368 -52.5639 
18.8275 -6.81459 -41.1834 
3.90674 -32.4558 1.67663 
-26.7284 8.13591 22.1403 
22.3421 14.4707 -29.7963 
-7.85862 11.3 40.5125 
-9.67501 -33.9981 -39.0425 
-11.7809 -57.5085 -36.3309 
11.1295 3.20247 -50.5851 
25.151 -48.1544 -58.0166 
22.7635 20.151 -42.2694 
28.1336 16.3014 -42.8785 
-19.1414 -27.8271 -30.6219 
-8.04682 -25.4998 -5.25843 
14.7699 -58.8926 -30.0974 
13.1482 18.4756 44.2481 
11.6949 -18.5765 -37.535 
10.1902 -7.99743 -4.24988 
-22.7307 29.4373 -9.64911 
19.7602 5.37154 -57.9085 
-5.61516 -32.2909 -38.8247 
-17.1941 15.0745 -13.9187 
-21.684 4.77132 -1.97566 
23.9402 15.724 24.5066 
-19.5674 4.08305 -54.9049 
-27.7357 34.6818 23.1441 
-18.2788 2.40754 -3.27884 
-19.5033 55.2628 30.1985 
13.6993 -13.5304 -5.35522 
27.33 5.55329 9.37993 
29.3505 9.41816 -56.67 
23.5048 -5.68602 -34.5956 
-17.3038 -38.3583 -42.5454 
26.0035 -55.7908 -44.2322 
26.4587 10.9332 -58.3609 
7.16286 22.599 -25.844 
-14.0257 -41.9195 -10.087 
-15.6917 -2.33416 -16.5208 
-18.4647 -36.4517 -45.7242 
-13.4464 -38.354 -42.5623 
-26.0376 6.3039 3.82116 
-5.72773 -50.129 -35.7953 
1.57692 51.7294 1.43197 
-12.2068 -18.4587 -11.0848 
25.2491 -52.9683 -57.531 
-31.9038 20.8023 16.0516 
-4.6105 -32.5269 -38.8415 
19.357 -46.2678 -20.7951 
-17.9095 -22.2908 -22.2599 
9.61168 30.6111 41.2424 
19.6042 38.1071 30.4496 
11.8177 -8.27336 -4.88657 
24.2498 -3.43598 -41.6904 
-14.4603 -56.7135 -53.1942 
-13.1541 -57.0346 -27.5668 
23.2019 -5.25996 -30.3197 
-7.72436 -7.32025 4.76787 
-5.52306 12.3956 -54.3282 
25.8259 14.0595 15.5366 
9.89277 21.7472 -57.32 
-28.2685 -41.6284 -57.4432 
-12.3808 -23.5997 -10.7161 
-22.706 4.05451 -33.6439 
21.4416 -42.472 -42.2203 
-17.1472 2.53413 -18.604 
-15.6811 -33.864 -38.3968 
30.2584 31.9226 2.78407 
1.47532 18.8345 48.3003 
-22.6806 62.8997 23.3184 
-11.3571 -54.1638 -19.9756 
-2.40284 52.7806 4.24917 
4.75468 2.74018 41.0077 
14.2915 47.7438 5.09773 
-22.1577 12.9069 -57.6372 
-0.177646 -31.6611 -38.8626 
-14.3948 -5.15612 7.39788 
-11.1631 -12.2718 -40.3363 
-17.9906 58.2343 30.344 
-14.3121 -25.0934 -13.5766 
9.75156 -57.0366 -25.7596 
20.533 33.5396 -52.1869 
-5.39656 25.1186 -54.1954 
21.4476 -2.21855 6.43994 
21.8485 -42.863 -40.227 
-29.0047 23.8897 -1.31428 
-20.4815 31.8538 -48.2325 
-28.3444 -55.1829 -43.7437 
19.2085 11.5078 30.433 
-17.3353 5.41274 -7.44106 
-11.734 -32.6468 -8.19851 
-25.1106 24.4088 -57.3251 
-13.1548 -8.26936 -41.6108 
-28.7722 -49.1901 -42.8025 
-10.8572 -42.6304 -55.4128 
-24.944 23.945 -45.769 
-18.265 -18.0756 -26.0767 
-9.41072 1.00651 -49.1236 
-14.4048 15.6113 -23.6527 
-8.42014 -17.3219 -7.15237 
-27.5743 24.9544 27.907 
16.702 -36.6779 -10.3869 
22.002 -5.39498 -40.9754 
-19.4746 43.3244 30.087 
11.8587 -36.2016 -1.76876 
25.3857 1.73796 8.37343 
-19.0879 -6.47772 -35.1485 
18.4133 -33.1584 -53.3659 
-26.6054 26.6825 -55.4032 
25.5432 19.584 15.1657 
-12.335 27.064 39.3881 
0.0664198 49.6429 27.7123 
22.523 -5.83214 -28.7343 
-30.2506 27.3638 21.7875 
-14.0331 6.84332 -57.3204 
1.30963 46.4633 -8.76722 
-25.732 -53.2705 -35.3213 
-27.9515 40.1448 14.1288 
0.197574 -51.0533 -6.88448 
11.6994 46.0253 -0.828851 
-28.6273 30.4733 24.0456 
-30.4722 12.6068 13.6149 
25.5745 -55.9458 -42.9063 
-21.1255 -2.24584 -40.9331 
2.41461 -8.01549 4.0875 
-28.3212 33.5129 3.28835 
-28.7746 -54.6242 -44.5219 
21.711 25.8325 -14.7922 
-27.7833 10.6919 22.8074 
-5.19687 46.1253 -7.45639 
-2.94622 -32.7002 0.492176 
-10.7533 -2.87134 -9.14812 
-1.39081 -53.3525 0.213473 
-13.2599 -28.3835 -36.589 
21.5382 -33.2828 -53.3787 
-10.834 -45.1696 -55.2867 
7.07874 6.87719 52.3431 
17.6471 10.5284 31.8954 
-23.2171 -51.9424 -56.4346 
-3.03032 48.6498 -4.44852 
12.0267 23.2764 -46.5804 
-9.11472 -44.6641 -50.2604 
-12.6308 31.1613 -17.4359 
5.4553 -53.6467 -41.9644 
7.27237 -26.062 -37.9584 
-32.3453 -43.3698 -56.2688 
19.7414 -2.07967 -17.0637 
25.4187 3.88888 -55.6411 
-19.6505 -5.47538 -36.3771 
-16.1495 48.7252 2.70944 
-24.904 3.18248 15.7429 
-7.58487 -54.3466 -20.3639 
-11.0331 -26.0811 -8.51253 
2.19488 -49.813 -34.3303 
7.30567 3.45377 -45.6323 
-32.4214 -43.943 -49.455 
-1.25358 -51.6391 -10.4459 
27.0334 2.925 -50.6134 
-26.8723 42.9255 19.9799 
31.8234 30.3409 1.97761 
-11.6979 -36.9102 -53.9616 
2.29672 29.1054 -20.8641 
-1.71552 27.727 42.7725 
3.87263 -5.74853 -43.4617 
25.7265 28.7123 20.3455 
-25.2592 35.8508 -1.57335 
14.9541 -32.791 -35.3584 
-16.1905 45.9715 -1.19642 
-4.99628 4.87908 -46.2734 
18.6632 8.09778 28.7652 
12.3131 24.3021 -46.5105 
-23.157 13.5983 -57.5744 
18.6877 -40.4919 -16.2422 
-5.9167 -49.5617 9.58259 
-31.9285 20.0107 15.6638 
-17.8434 -53.617 -23.5195 
32.2617 20.5097 -48.8418 
-9.24989 -45.635 -4.73269 
-25.656 -57.7013 -39.8235 
31.5302 25.6098 -55.7795 
-15.4647 33.3712 -50.8676 
-14.6378 33.2996 -51.1925 
9.14388 -8.46261 10.4109 
12.7564 -36.2213 -51.0377 
-3.44884 -45.8384 -35.8807 
6.18008 10.2154 -43.5093 
-17.9537 16.5602 36.759 
-22.0412 0.867368 -46.1647 
1.43357 -5.46073 -43.7611 
6.39963 -24.0549 -38.8611 
22.7092 5.31646 19.8229 
6.79375 -26.7915 -38.0447 
29.482 25.1865 -46.4863 
20.8809 35.8142 -10.9674 
14.658 -42.6028 -8.2849 
21.6951 -1.36511 12.6196 
27.9487 31.0054 -54.311 
-7.40201 -41.3403 -40.4903 
23.3847 24.8598 -43.3685 
2.85891 -50.4501 -35.2034 
-18.6499 4.32163 -21.62 
25.8677 11.8875 16.4343 
13.9965 13.0773 50.7915 
25.7954 2.72444 4.82245 
-8.21106 -48.739 -45.5042 
-27.5798 12.3935 -0.546295 
9.36639 10.488 -54.4696 
15.1789 18.5092 -28.6276 
21.5628 -34.0187 -50.7683 
25.2537 6.10852 -29.2809 
-24.3712 33.1952 29.2442 
13.627 7.52059 52.7015 
-11.3391 16.3648 40.1296 
15.7608 48.8196 13.6414 
-20.6839 -59.1933 -52.5185 
18.2253 -55.8101 -27.9703 
25.8051 28.8163 14.2853 
-4.23801 -34.7026 -38.8092 
29.174 31.8488 -6.62809 
-14.292 20.6017 -57.5929 
16.7082 21.6544 -17.6234 
6.97579 -41.195 -38.8619 
2.64063 14.7524 50.8448 
9.62727 11.6769 -55.949 
-13.9465 -14.7605 -13.9102 
18.2332 -46.6086 -57.5877 
-18.4251 -30.0827 -34.1611 
8.40387 -51.4038 3.62185 
-1.96475 50.3426 -1.77981 
-9.47792 -48.2364 -7.78603 
-5.55059 11.5527 41.9352 
-28.6444 11.8771 21.9495 
-8.92414 45.1008 32.8579 
15.9635 -18.9706 -32.5297 
1.87061 -51.3757 -10.1026 
-7.06705 -35.3879 -39.188 
-6.58173 -47.6398 5.48162 
-0.721963 -40.0666 6.68582 
9.66937 -8.14495 8.67517 
-0.356146 -34.4412 -38.4965 
22.4837 36.5369 2.16764 
23.8138 -2.3908 -28.2492 
-5.2735 -50.7603 -8.67254 
5.78752 -4.95887 -43.3718 
17.0291 17.8979 -25.6816 
0.00938386 -39.1157 6.08728 
21.287 -51.6478 -57.4544 
3.94161 31.7977 41.6538 
20.465 -49.5026 -24.9314 
-27.3456 6.72827 7.29734 
-11.9248 57.9413 28.1227 
18.7662 -4.33621 9.46248 
-11.121 56.5767 29.0913 
16.2888 28.4488 -16.9958 
27.4121 6.0183 9.96648 
-8.01459 -16.73 -40.6589 
12.1127 28.8028 41.3676 
23.6494 -0.254779 -48.7649 
-25.0222 28.5479 30.3855 
19.8866 -2.26067 -47.6276 
25.1091 28.1974 -58.3276 
-21.3513 31.1038 -10.453 
-28.5315 17.7661 -55.3584 
-18.1837 -10.3202 -29.0463 
-23.7656 9.56132 -38.3768 
14.3051 -35.1568 -50.9456 
13.0952 -62.1378 -52.1022 
29.8111 -51.2532 -52.0217 
-0.773205 52.7605 19.0536 
20.7544 11.0804 27.5752 
-1.97456 8.5042 -43.2586 
-2.16087 -4.83323 -44.0391 
-26.9262 17.8718 -47.4706 
18.9511 -0.123397 -51.2883 
23.6275 30.3965 -46.2408 
26.0015 24.1258 -43.846 
-3.30505 35.9116 39.4613 
25.5679 30.2165 21.9212 
-19.7337 30.1606 34.6099 
11.1917 -5.60385 -4.32728 
-26.6212 46.337 12.7282 
7.09129 -47.2209 -44.6059 
11.1431 2.93467 37.7015 
20.2162 -36.2119 -47.6173 
21.0445 -41.3591 -57.9638 
15.6521 -38.8139 -57.2845 
6.08586 30.1727 -20.3817 
9.06474 25.3219 -51.7725 
7.44779 -49.013 10.8583 
-27.3582 31.5048 25.8792 
-22.1107 -0.378434 -40.5918 
14.5185 27.0531 40.1805 
-11.7356 29.1219 -56.3226 
-18.0084 53.7216 13.1074 
-12.6164 8.84238 37.1729 
-24.6459 -58.8314 -50.7142 
-31.4409 -45.6849 -56.5653 
13.6129 2.49355 -52.9038 
-9.77847 -3.68702 -1.48859 
28.0063 8.28319 3.29838 
-6.63181 -19.0925 -5.17932 
-27.1538 23.3381 -47.9365 
-14.7308 -6.92793 -42.3089 
-6.05513 -7.95458 5.44924 
0.268824 -47.0276 15.1032 
-23.1806 -60.2492 -45.6895 
-23.7419 10.2824 -4.96036 
-22.1617 24.9239 -57.5625 
31.8836 30.5469 -1.52243 
26.4813 34.9874 -8.22484 
-1.87681 -5.98082 26.1556 
-28.0199 16.9316 26.6711 
16.2195 -40.2241 -10.3901 
19.642 33.5409 -53.3008 
-14.031 -33.0678 -11.7268 
-30.5568 15.6879 4.67607 
28.9384 16.568 -3.30992 
30.9172 27.9863 -4.43796 
-7.90475 21.6089 -22.3552 
-17.4991 59.2686 20.9035 
5.44339 -54.8042 23.2637 
-24.3067 20.4525 32.1043 
-2.0208 46.8045 -7.52629 
-15.16 -38.1577 -44.6915 
8.23335 -44.9488 5.73925 
-2.81005 -9.21197 -43.4701 
-18.0472 52.5102 10.714 
-9.06251 -54.4646 -39.0332 
-27.104 45.8245 16.9747 
13.6853 -63.0648 -43.496 
-4.78677 24.2777 -53.0372 
-17.8683 -3.31577 14.0793 
26.6928 20.0352 10.3809 
24.3002 -48.1558 -33.0409 
15.1469 -63.6076 -48.1341 
18.7496 16.9485 -30.3299 
-28.4195 -46.6931 -57.0735 
-9.98379 -8.18753 -9.54518 
24.7874 1.33763 5.03188 
24.6373 1.69245 11.8015 
-12.4349 56.6641 23.9964 
-18.6146 -6.85932 -26.6802 
-14.5999 13.7317 -17.3946 
10.7919 20.6677 -27.6942 
-1.39875 -53.9688 -20.5954 
-12.232 1.72529 -52.2254 
15.3175 -25.634 -7.03311 
29.8716 -50.4442 -55.4617 
2.20933 -54.3068 -23.5575 
8.3637 -26.8179 -37.2431 
-15.6044 -7.31793 -17.0274 
17.8651 27.3025 -44.3396 
15.4189 -45.673 -13.5115 
-15.8284 -2.52295 1.82401 
30.8392 23.9922 -47.7165 
-15.102 44.7468 -3.63091 
23.425 0.923016 2.72639 
16.6194 -1.67048 20.6977 
6.00037 -52.7221 -16.0026 
-14.118 -9.74078 -14.5809 
-19.1942 -2.02957 16.9122 
23.9225 -4.87002 -33.048 
-11.0418 -52.5404 -16.2319 
-1.18737 52.3752 2.92418 
-15.225 11.5854 -18.2753 
-20.6401 17.9024 -12.0791 
-32.9059 -47.9848 -52.3901 
19.7692 13.4132 30.7648 
-24.0527 12.0847 -57.2938 
-1.88854 35.9229 39.6911 
-16.3192 57.8587 21.1116 
8.85659 46.0501 -6.18152 
-22.8986 -37.0315 -33.996 
-4.1325 -5.61134 26.4447 
19.4031 -40.7142 -17.7707 
-29.2499 33.5286 20.0079 
3.25276 15.6529 -38.3197 
-22.9757 -35.1812 -29.5777 
7.48239 -49.628 -3.43845 
-13.9748 -3.0648 0.822908 
-2.03208 -52.0642 -28.4421 
-25.9454 30.2115 28.6191 
-7.57 26.752 41.2858 
13.0434 7.05631 47.8076 
-25.9464 51.6215 15.0296 
-23.3326 -36.7437 -29.6473 
-6.15061 4.3571 -47.9155 
8.21672 10.7206 57.0913 
-26.2088 9.75982 -0.559154 
18.2289 -40.7193 -42.6424 
-23.2773 4.23072 1.2406 
-19.718 -35.3066 -46.1946 
14.0549 -51.5301 -18.9199 
-6.20865 29.5505 41.1241 
4.00237 -40.1576 6.27304 
-27.5494 42.2788 14.3776 
-30.8863 20.7148 21.3331 
-22.791 57.6776 16.43 
20.0092 28.2048 -15.0225 
-14.4561 -30.3855 -13.0572 
20.519 -55.5174 -30.7354 
-15.1889 60.3485 24.3595 
17.0066 -10.777 -8.97983 
22.6391 32.858 28.9723 
8.44808 14.5514 -52.8901 
13.7966 12.9766 -58.2613 
15.4164 -3.61314 0.914365 
30.5605 -47.8535 -52.3363 
-7.66851 51.9515 4.50786 
-0.55943 -2.18715 -44.0817 
8.23179 -52.4642 -16.4876 
9.91033 -43.0516 -56.4077 
-21.305 0.133047 -30.1228 
0.864127 -56.0504 24.8922 
-2.89243 -11.3104 -4.40435 
-4.51945 -8.39541 18.0225 
-2.36516 -10.5533 -43.2531 
-25.4824 51.3683 23.5446 
-6.68765 -51.9569 -12.7287 
17.7516 -21.5005 -11.2624 
13.1738 -4.8619 -43.8947 
16.6102 48.315 15.3809 
-28.4564 22.8736 26.8162 
3.72263 -14.8647 -42.0189 
-5.5667 26.6134 -51.7176 
-21.4143 8.06512 -29.522 
7.08382 -55.2439 -48.3806 
-23.2582 37.5496 -3.21623 
-11.6532 53.1658 31.2383 
0.679495 30.337 -20.7761 
-23.3039 -58.6709 -52.6989 
-4.34978 -17.5754 -3.81106 
10.6795 18.3642 -57.8082 
-26.7356 48.9798 17.1973 
-10.4827 52.6347 31.1115 
-18.8668 -57.7995 -31.0461 
-18.1059 -30.2313 -19.6044 
4.82979 28.0138 -20.7474 
20.7427 31.6999 -47.3542 
9.22528 -4.9806 -1.42077 
26.713 -55.471 -46.4274 
-6.23421 -9.94819 -6.54712 
20.1379 14.6031 30.8757 
25.2392 14.5928 -36.5052 
-14.8029 -38.8928 -11.4842 
12.5581 21.7248 -45.77 
-31.2049 26.8979 7.28706 
-15.5506 36.3475 -12.318 
28.4748 3.11424 -43.9855 
19.7049 18.0436 -38.5772 
17.5511 -11.6429 -35.7098 
-3.22745 -47.2371 12.8864 
-2.97129 53.7452 11.0051 
-11.0918 38.7424 -13.271 
16.4678 48.1327 19.8721 
-10.797 -53.218 -51.9055 
9.15517 -48.4093 -6.49257 
31.2568 25.4014 -49.2814 
22.161 38.6312 26.802 
27.9847 5.99924 -36.481 
-2.28128 26.2399 -21.1324 
-18.1695 -60.8756 -41.5669 
28.8067 19.3555 -58.5555 
-17.2077 -3.69883 14.8059 
-18.1918 -31.3829 -50.165 
-17.2232 2.32465 29.3312 
-21.3955 -2.20771 -35.5285 
25.5722 27.4598 14.8044 
-14.7798 42.1479 -7.02642 
15.3966 -46.6268 -14.5618 
-26.9855 8.50182 2.63952 
-21.2354 32.981 32.3561 
-6.35697 52.0403 28.9168 
-29.0303 36.4429 14.4757 
-15.7491 49.1845 31.5811 
16.1932 47.9795 21.3443 
-6.48845 7.14455 -51.8381 
-23.0995 6.42299 -54.7634 
18.5748 -57.0657 -56.6806 
-30.3478 -51.6485 -46.2701 
-17.8932 -5.07951 -22.1635 
12.6046 4.82452 37.9096 
-30.0632 12.0068 15.7291 
-25.0383 9.2564 -44.4318 
0.969504 31.2664 41.8996 
-16.5268 47.4364 1.01064 
4.94808 -9.24794 10.8828 
-15.7599 37.4766 33.9421 
-8.97908 52.2079 11.7856 
12.2496 25.6234 45.2445 
6.9419 24.2522 48.1931 
7.31315 -47.7513 -53.5882 
-25.7746 55.5311 18.94 
12.9205 -3.88568 -4.3833 
-18.5374 30.7439 -56.3374 
-13.9733 -46.8072 -11.7911 
18.7792 -21.8139 -14.9425 
4.86693 44.1506 -12.5873 
5.78027 -55.1266 -41.0689 
-16.9857 -38.3159 -57.2203 
-18.2235 -14.3153 -26.0235 
18.113 -5.84121 -11.4808 
11.2455 6.63814 54.2737 
-0.64109 -51.0434 -30.2463 
-28.8413 -47.1434 -43.8465 
-20.2941 0.467238 -49.0588 
-10.8289 30.1725 -47.3039 
-19.5883 -5.02103 -38.9091 
3.79672 -6.52689 0.722057 
-17.7502 22.5121 -15.271 
-4.48413 12.3631 -45.4863 
27.6914 19.2996 -8.98191 
8.68423 46.4185 -4.99582 
14.1868 49.0126 8.05222 
3.37825 -54.5686 -27.1084 
-30.3234 29.808 6.13788 
1.44425 -48.4547 18.492 
25.4713 -56.5761 -43.5374 
-27.5705 6.87445 8.0832 
14.3229 21.7498 -44.5363 
3.07937 36.7041 39.4258 
-25.7377 39.5323 3.61924 
-18.0384 -24.2739 -22.4423 
-18.0016 -13.9189 -28.4142 
-12.1068 8.23987 37.1237 
20.9263 -8.32097 -26.1231 
13.9587 -32.3268 -35.455 
-1.47789 5.89071 -43.9669 
17.1049 5.07619 -57.5077 
-17.0885 -3.0594 19.0864 
-3.84414 -19.4628 -3.1194 
9.811 18.5865 -48.4577 
19.0683 -58.612 -56.4141 
19.0371 -15.5463 -13.4125 
-14.3672 -59.2936 -38.134 
20.5923 -33.2358 -52.8068 
13.2626 -10.6169 -5.46176 
-17.4238 50.3021 6.06796 
7.33949 -55.1746 16.516 
15.663 -6.03182 10.7625 
-0.699868 -48.6423 -32.861 
6.38778 -27.4979 -0.184792 
1.70026 -48.6165 -34.4311 
3.97533 -0.953147 32.9591 
-12.5068 -53.9829 -19.9648 
13.2069 -9.86976 -5.5034 
11.9023 46.4652 28.7355 
32.9341 20.1894 1.99247 
25.6812 29.9536 20.9818 
-27.8572 33.9866 2.49581 
-9.64677 -13.303 -8.99232 
23.0506 -36.2789 -27.5936 
-24.3497 -30.8546 -50.9948 
-9.27623 -53.6326 -43.4795 
-14.8189 57.051 22.1116 
15.2845 -12.0796 -6.8568 
10.3366 -48.4123 -56.3398 
-31.3065 -49.7549 -47.6779 
-22.8669 2.40617 -46.9749 
-0.356773 44.3629 33.9704 
-30.1044 13.3285 18.4589 
-7.51196 29.1908 -53.2517 
9.43253 15.3932 57.403 
17.4596 -13.8269 -33.5492 
3.36456 -31.2834 -38.403 
-24.5959 32.4241 29.3538 
22.7553 0.362581 -50.8646 
19.1671 20.2274 -15.9055 
-8.29837 -36.9953 -2.4759 
9.49978 -56.0227 -23.5295 
-6.83925 -52.6244 -14.5697 
9.88496 14.4655 -57.0845 
11.4892 47.9084 1.69343 
7.01503 1.84176 -45.1012 
-15.5691 26.9234 -16.7202 
-13.8915 17.8603 -57.5895 
13.551 -33.0667 -4.22737 
-30.5342 27.2288 20.8864 
-10.5822 3.13812 34.4078 
-11.6308 -49.0106 -11.1264 
-20.6126 21.2429 -12.8144 
9.4934 -59.2685 -51.0077 
16.1796 4.2346 -56.7809 
-8.33868 17.5662 41.4726 
-31.3006 26.0504 18.1297 
22.2771 0.577785 -22.9114 
-5.10034 -52.7948 4.4511 
24.3275 -3.87938 -32.1882 
-5.36462 -22.5101 -3.54954 
23.9968 -0.246627 -27.3303 
6.39249 -49.8555 -7.12114 
1.28646 -43.5469 10.1491 
-23.2959 -41.2851 -38.3734 
-17.8075 12.1867 -25.4134 
-10.1543 -20.4549 -8.4121 
13.4513 -29.9122 -4.37263 
14.3234 43.7989 -0.638742 
-27.1044 18.493 -56.9957 
24.5456 -46.4814 -39.3674 
-27.7217 24.8628 -3.68478 
-16.4367 15.7566 -29.3229 
9.17929 -59.4682 -48.402 
6.58495 -52.9552 19.4154 
16.2407 30.5132 36.8716 
18.4962 -3.61281 -45.8772 
12.3642 -61.2589 -52.861 
26.1781 34.2765 3.43478 
24.036 18.3499 26.7835 
10.7984 -4.70178 23.0273 
6.5689 34.8431 39.8296 
-12.904 -3.59895 -12.1074 
-5.23059 -49.3373 -35.488 
4.99037 -9.15902 14.5503 
-15.7482 -42.4669 -56.8091 
4.52217 52.0183 3.35754 
-1.64717 -40.7536 -37.479 
-24.4755 -44.2948 -30.4121 
-18.7485 -6.69614 -27.4393 
-18.6599 -49.3113 -56.4465 
15.6024 29.0651 -57.6697 
30.5489 15.4251 4.4722 
-19.4874 -59.9642 -36.4628 
2.6125 -6.34499 25.1327 
-0.483408 7.90333 44.4768 
27.9877 -43.9911 -47.931 
-26.7526 13.6746 -48.054 
11.9344 -61.4742 -38.3484 
9.14137 -49.161 1.73538 
30.4511 28.459 -54.1096 
24.1561 12.4007 20.8838 
-7.66207 -53.2313 -36.2673 
-22.111 27.9034 33.4319 
-16.2927 20.9141 -41.1218 
6.77477 52.9008 11.6498 
-9.8209 -41.9063 -50.508 
22.1977 9.86047 23.7818 
26.5153 14.9959 -58.6451 
12.2123 15.9112 42.423 
6.72744 31.6447 41.4087 
-12.2806 -3.13268 -11.1591 
32.5129 15.6673 -55.7446 
-17.4231 32.0969 -55.2816 
11.6684 -4.20959 -0.811174 
18.5855 -17.4785 -12.3089 
7.53023 -7.63761 19.3727 
-27.0225 5.68081 11.8447 
17.669 -18.0549 -29.5091 
11.4601 28.0971 42.5656 
-3.4922 -14.1545 -4.08341 
20.6739 -4.87824 -21.5511 
6.18223 35.4192 -19.1024 
13.2565 8.75085 47.1236 
23.1851 -39.4919 -58.1523 
-9.22821 25.7481 40.8549 
-19.1128 31.609 -12.4422 
12.7002 25.5413 -46.5301 
-13.122 -6.52473 -43.305 
19.375 46.3243 19.0826 
14.1278 19.9216 -25.163 
28.3878 -45.1201 -48.1449 
9.38739 -30.6931 -0.753392 
0.0853829 23.2721 44.965 
29.8927 17.2164 -2.31776 
-16.4337 11.3116 -57.6853 
6.28518 -51.977 -46.6261 
-23.7588 -59.8074 -47.0399 
25.3895 30.0559 -57.4756 
0.348119 -36.7806 4.36281 
-13.6689 -35.1082 -55.3682 
-17.4474 -4.60245 -44.0264 
-13.4556 34.8228 36.4454 
21.0835 -30.9642 -22.0964 
-19.4892 -38.6883 -40.8995 
20.5428 -9.16046 -25.0241 
26.3718 8.26781 -32.207 
-17.9545 -0.372587 24.5807 
-28.4991 20.0291 -50.05 
19.5498 6.69431 25.8598 
22.6738 21.2576 -42.6458 
14.343 49.6729 14.3951 
14.5131 49.5007 16.4528 
23.0424 8.92248 -25.5042 
-26.6592 -57.49 -42.4929 
-18.25 -7.57978 -35.7334 
2.90361 -35.389 3.39918 
29.4931 13.2105 2.30557 
23.5878 22.2322 28.9838 
30.3927 20.4641 6.57745 
26.3858 17.6398 -42.1678 
29.8217 13.6731 4.64701 
17.0916 -8.96055 -9.25002 
-1.58354 -20.3155 -1.89631 
-7.67485 17.3967 -39.6309 
-28.3974 28.2169 25.611 
-6.39918 19.5749 -45.6724 
13.3861 20.0404 -26.1775 
8.02625 50.2458 24.7016 
10.09 -46.2023 1.26324 
16.4523 -59.2881 -31.9114 
13.266 6.60754 37.2242 
-4.63561 22.4812 -53.4956 
19.5396 -2.93545 13.6596 
3.73245 -16.5811 -1.56712 
-32.0393 19.0077 11.3253 
-14.8815 2.79267 -7.07249 
26.0029 -43.0976 -46.1421 
12.588 5.696 41.4746 
-11.0315 2.39684 33.5381 
32.0465 11.5945 -51.856 
3.93051 44.6555 33.6373 
-24.2417 -43.1683 -40.2341 
-8.82966 -46.9412 -48.9011 
-9.14951 30.1031 40.0185 
4.89818 -51.8133 -41.1858 
15.3975 10.8978 34.4938 
-20.6495 27.1788 -57.3881 
22.5877 -3.5005 -43.9955 
-7.6494 -47.638 -4.31197 
19.1226 -14.3806 -27.68 
-30.6654 -53.3504 -51.785 
11.6301 49.5672 4.71643 
-14.5433 23.701 38.8949 
-0.352147 22.6722 -27.6325 
3.8402 53.1458 7.26492 
8.5685 -44.9271 -46.4212 
-25.6719 25.6851 30.3595 
-8.24784 38.9897 -14.5861 
18.7755 -38.7742 -15.8005 
8.2056 34.9621 39.3622 
26.7755 3.53848 -33.3912 
1.80924 9.34883 -42.3655 
-0.541615 37.9552 -17.7758 
-10.1831 -50.9924 -12.7074 
7.7259 -6.54932 22.2023 
7.78946 -23.764 -1.13354 
-17.6771 56.4409 18.0412 
-30.1849 26.6986 22.2982 
16.9555 -31.4631 -10.8443 
1.59816 -23.718 -0.526027 
21.4119 27.9217 31.907 
-11.1267 -4.94069 -10.2022 
-10.1534 -52.2609 -51.0354 
26.3772 3.72895 4.69426 
-0.627733 52.9632 4.74975 
1.07587 -37.5125 4.92352 
-5.03407 -51.1775 -9.77055 
-22.2199 -33.3614 -27.3759 
-14.772 -36.7863 -40.9316 
-16.8508 -16.5819 -18.8749 
19.1847 3.98544 -6.83925 
-31.2474 15.5204 15.3243 
-18.1892 33.6048 -12.0774 
26.2795 28.9181 -57.8306 
-18.1068 47.3113 30.7856 
-7.24129 -36.9053 -1.24709 
-12.9454 16.9333 -21.1362 
2.24256 -31.3188 1.22657 
0.522639 15.726 48.2538 
18.0818 1.84003 -5.77644 
18.1198 -3.15968 -11.1864 
9.9345 16.0864 -46.6044 
-29.1661 35.7778 10.828 
27.2383 -56.4182 -54.8223 
-15.0891 -0.188573 28.2254 
8.93538 21.837 -56.5365 
19.9361 -11.5848 -22.1406 
-6.25635 45.0564 33.0046 
-22.7353 -34.4284 -46.77 
17.8111 -35.855 -13.014 
-19.5183 -2.21889 12.6768 
-8.115 40.9926 35.2083 
16.8885 4.07552 27.6243 
26.7933 -46.2918 -45.4079 
-15.2819 9.3314 -16.0065 
-5.38109 53.3336 9.05905 
25.8009 4.11831 2.36479 
24.0807 -44.3432 -34.5411 
-24.4798 54.3404 26.0116 
-16.8874 -14.0231 -19.2593 
-26.1112 11.5019 -47.427 
-12.4629 33.1302 -16.6445 
17.2529 0.720138 -52.5599 
-22.2867 42.671 27.6658 
-11.4013 6.09655 36.2094 
12.6952 26.3598 43.5574 
17.8565 39.5651 -6.61725 
6.18257 5.77442 -44.8787 
-28.4071 30.1167 24.7152 
-30.6336 27.5806 5.06574 
-26.4994 51.0633 17.8324 
4.04459 -36.0002 3.54245 
-28.4722 23.0071 -50.5422 
5.28509 16.7763 -37.0003 
-17.8953 52.9375 11.7365 
-18.7394 2.16933 -2.4536 
22.4227 -38.051 -23.8624 
24.977 21.4929 26.0288 
23.5649 36.658 -0.867583 
-18.9795 -44.1727 -56.9028 
7.78606 -57.1746 -48.296 
-11.379 -4.32204 0.911335 
2.4889 23.7025 46.2168 
-11.7583 1.39503 -51.5203 
21.9331 -43.4599 -58.009 
-17.9286 -34.3637 -17.935 
2.5716 -43.2351 -37.1728 
7.19982 -7.96815 18.5553 
-17.1656 31.5545 -46.5282 
17.7557 -24.1237 -12.2959 
-3.70964 -22.6588 -2.47235 
12.7932 22.7476 49.6126 
29.5596 -42.1889 -50.6922 
-26.8197 24.2213 29.0902 
25.6281 19.5204 14.1562 
-8.84276 41.3198 -11.7582 
-22.8799 -59.444 -38.4171 
25.6343 36.6566 11.4442 
-15.3093 -34.384 -13.4858 
6.7809 -55.703 -45.6446 
-4.27912 -46.8199 10.8074 
-4.6239 36.7471 -17.6841 
-27.8472 8.98988 4.13063 
-6.93857 46.5018 -6.14837 
14.0396 16.7403 49.8353 
-7.55874 46.8239 32.1404 
7.63028 -52.8421 -16.9201 
14.6546 23.7688 -44.718 
-10.1907 -34.1725 -5.64822 
4.13004 33.4677 40.8696 
-14.2137 52.0553 31.5887 
14.6601 -31.7714 -5.97338 
9.10216 2.33006 40.2391 
21.9423 42.9433 11.2681 
-18.3926 -24.7242 -29.0795 
-33.1639 -42.1133 -51.464 
-23.4574 41.2579 1.32187 
-4.36846 -50.3723 -4.17558 
-13.3886 -15.1555 -13.0535 
-1.04218 -53.528 -24.5118 
29.2362 -41.0275 -56.9888 
5.93261 27.0525 -20.7871 
-0.784482 0.583641 35.322 
22.2117 15.6821 -58.561 
-27.4667 26.5887 -51.8627 
8.97013 45.7437 -7.31425 
-5.88615 8.26839 -51.6453 
18.5314 -20.5683 -25.5294 
-16.7692 3.84069 -55.5795 
-31.8341 25.6904 12.5591 
0.930604 41.0821 -15.4895 
-20.4092 -55.9019 -29.5117 
30.5441 -48.01 -55.2952 
-17.94 -40.6488 -57.0467 
19.095 -16.1517 -25.7046 
10.7435 4.76736 -51.8884 
-22.6779 13.8775 32.2767 
16.4932 -22.4834 -30.1829 
-14.4743 -10.8941 -38.4838 
-23.1921 -41.2511 -57.2895 
-29.2773 26.8241 24.4538 
17.8454 -14.496 -32.0263 
18.2732 -34.838 -14.0393 
-10.2291 51.8081 9.50231 
-21.117 -0.967795 11.5503 
13.314 18.9491 -58.221 
-1.60641 4.10073 -44.2078 
-11.0772 18.8385 -26.0619 
-21.7367 16.5006 -10.6018 
13.6018 17.7934 47.4922 
21.105 28.4819 -44.4506 
26.2552 22.1218 -58.6974 
-21.7615 -44.9508 -23.9789 
-16.1287 42.9702 -5.00374 
9.72293 0.819055 33.6786 
-16.3371 22.9616 -42.3219 
14.0474 17.693 -35.1987 
-16.543 52.4063 31.2321 
-0.899503 49.843 27.5675 
3.54876 -51.8504 -36.0322 
12.578 16.9212 40.5058 
-27.8306 11.4022 23.4504 
-5.86452 52.4939 27.1429 
-18.8216 49.434 30.5169 
-12.1512 -35.1431 -39.7337 
-15.8875 0.13853 27.9582 
13.6264 49.5048 8.38394 
26.2217 30.483 11.8154 
21.162 30.7724 31.6846 
-5.20451 -19.5728 -3.96796 
24.8356 -0.521857 -46.6692 
12.4075 2.59728 33.224 
10.2789 -60.9543 -41.4059 
-18.7497 -39.8002 -18.1039 
14.4571 -33.4933 -5.52824 
-17.8491 -14.7051 -22.3868 
-15.7667 13.3017 -14.5899 
-25.1126 35.4425 -2.23821 
12.4386 50.6923 12.2118 
23.7472 19.8548 28.1214 
21.293 5.71806 22.1876 
-1.93515 -21.2003 -1.90257 
18.1242 -38.7386 -14.387 
17.3285 -21.5894 -28.765 
12.681 10.4726 43.9957 
9.05128 -24.1909 -37.3772 
-5.5756 -14.9123 -5.23907 
-19.2062 -58.3561 -32.4407 
18.1248 -43.5386 -16.8432 
-11.3086 55.1545 30.3739 
-26.3062 20.8472 -6.14993 
19.2343 38.129 -0.0835015 
-20.9544 61.7328 28.2308 
-0.948861 -32.3165 -38.8264 
-12.3013 6.39241 35.9706 
-10.5518 20.9044 -42.5413 
5.61483 -29.8351 -37.9867 
-13.2379 55.4807 22.3575 
8.78401 -27.4949 -36.9278 
-11.6174 -56.9307 -28.7939 
-15.8406 34.062 -13.7825 
16.4785 8.04199 31.9634 
-12.9775 -35.3711 -9.42907 
4.43174 -16.0052 -41.6156 
-9.23 -15.9505 -8.18347 
16.4325 18.9488 36.2809 
0.95825 20.3734 47.0718 
5.68706 21.9158 49.9786 
-7.02332 -42.9109 1.89963 
-5.75307 -52.609 11.3872 
-23.6021 32.0344 30.5961 
-15.1756 -9.88987 -38.5818 
-7.04797 -52.6217 -35.5544 
24.1275 36.2623 0.0228017 
-22.0537 -31.1025 -55.5976 
28.411 32.8753 -7.3467 
14.075 -0.475627 25.8465 
20.9139 -2.77669 9.36576 
25.7369 22.0538 11.9687 
-17.501 -60.1263 -36.8027 
-31.4087 21.223 19.1979 
0.033679 -8.65192 -43.5276 
20.692 43.992 23.0561 
9.35066 45.0498 -9.09653 
14.5227 -43.7533 -9.18062 
-16.4324 -27.9191 -34.4541 
-19.1774 12.4574 -57.6388 
28.8438 17.9892 -58.5189 
26.5031 -41.2618 -47.4563 
12.7209 -51.9605 -56.5772 
-20.8941 -54.7794 -28.6981 
0.0121187 48.5088 29.4534 
17.812 23.1777 36.0555 
-15.3961 16.8713 38.2908 
-7.24429 23.2937 -20.9894 
-4.32639 13.6903 -47.8153 
-18.9642 1.66546 -22.317 
18.8498 27.7877 -15.8098 
6.53259 -51.5318 -48.1711 
-28.0968 24.9774 27.0763 
-18.1271 33.3536 34.4652 
26.8257 31.8068 -9.46977 
15.9085 -63.4215 -42.7812 
-15.8254 -59.4137 -46.5254 
-5.41008 7.44607 39.8547 
-25.2159 -44.5206 -39.9715 
7.29636 -2.63449 28.9109 
-22.0779 -52.5002 -28.1877 
-21.617 -31.5746 -28.032 
30.6939 -46.6123 -52.4772 
24.7867 -48.2155 -35.7773 
-23.4867 10.6689 29.9258 
-15.7073 59.2194 30.1279 
11.0769 4.04954 -51.5924 
-7.44095 -14.4144 -6.76625 
-30.2528 20.3181 23.2576 
7.15916 -54.0306 -50.7703 
-7.65194 -54.0531 -33.0789 
22.2419 15.1485 -12.1881 
-29.3767 14.0092 21.992 
-4.70608 -21.3104 -40.5788 
-23.9414 -39.5526 -32.6621 
-10.6906 51.6828 19.491 
25.491 19.8125 17.2778 
-4.42813 10.4971 42.2955 
23.1047 -40.8439 -34.1234 
19.0861 -15.0519 -27.0731 
5.89079 -56.0802 -38.1856 
13.8838 -2.7235 -4.00083 
4.78856 -47.1674 13 
19.7282 11.1256 -14.2093 
-24.6425 8.86055 -2.32671 
17.0251 31.4015 -15.6583 
20.6172 -2.88733 6.57314 
-10.5459 -53.1286 -51.0486 
-4.05323 -46.0718 10.3786 
-0.384925 -6.78094 24.6371 
23.9137 5.27596 -26.2789 
-11.3635 -24.267 -9.2385 
-22.4498 -48.8333 -26.5341 
7.0794 -17.6858 -40.3866 
19.6159 11.4905 -15.9015 
7.18684 -25.7754 -0.704541 
25.6919 26.6318 11.3275 
-2.0598 -34.3257 -38.6575 
8.79494 -48.54 -4.11703 
15.6984 -23.2904 -7.31722 
-12.2095 42.831 -7.98849 
14.5813 -1.47988 23.7638 
12.8322 50.4552 11.4651 
9.37785 3.01418 42.7096 
-2.07573 -22.5217 -40.5758 
7.35113 -57.9077 -34.1427 
-27.7612 40.7314 12.9116 
18.4268 -62.4278 -40.5652 
-13.8668 23.3669 -17.6281 
10.8283 -21.2548 -37.0893 
4.2617 9.1143 51.7025 
-21.8394 0.236075 6.58345 
-5.04112 23.7194 -54.1814 
-12.5944 -58.0588 -34.569 
9.77477 -49.8207 -11.8069 
2.77763 -59.3944 18.9007 
14.5179 23.5992 41.1098 
-7.14466 20.8394 -56.5487 
29.798 13.9858 2.06971 
-14.778 -1.37565 -49.2649 
30.9423 9.09542 -48.0865 
0.640764 -28.0229 -39.3824 
19.3306 1.57805 20.9771 
3.89832 -23.1565 -39.9246 
25.9751 9.01829 -31.5927 
-12.7609 -25.8644 -36.6343 
18.4349 -42.817 -16.9649 
9.10965 -45.1561 4.2579 
12.491 32.5813 -18.0437 
13.4917 7.9024 49.5138 
-11.2372 -6.58375 6.89376 
20.2062 20.4186 32.9706 
-17.4023 14.2062 -57.6056 
-13.6781 -15.3182 -37.4922 
-12.0512 53.449 21.3898 
13.1058 16.1277 47.3778 
25.3845 36.918 -4.92088 
-18.7707 -55.982 -27.8051 
-8.04469 -3.2722 -4.19549 
9.35651 -7.90134 16.0565 
-16.195 -60.2513 -40.4413 
-17.8418 -10.5846 -23.2855 
9.72404 20.2922 -49.0187 
-4.74097 -3.9649 28.7877 
5.08729 8.98838 52.6891 
32.448 23.7159 -51.0375 
21.2371 37.1851 -0.224241 
8.21933 2.67853 42.2662 
6.52446 19.9998 -31.9714 
-17.7725 35.3393 -11.2247 
18.2844 -10.5437 -11.3802 
-9.17407 -46.0149 -51.4659 
-0.477141 -43.235 9.73842 
-4.9892 -3.39479 29.511 
13.6023 37.52 -15.562 
-0.461553 5.99586 42.4182 
20.2387 -58.9836 -35.4812 
-21.743 -40.297 -42.2427 
13.3369 41.0699 -12.6748 
12.1498 13.5594 42.8061 
-3.62036 -26.1933 -39.7206 
-28.337 24.0345 26.8814 
23.3989 -58.5751 -40.4957 
-13.3157 19.5546 -39.5649 
-32.2056 -38.7678 -50.5054 
6.08831 -16.6476 -41.0315 
-2.14026 -11.3975 -43.1069 
29.1732 26.6657 -7.14619 
17.3064 47.6562 19.8377 
30.3892 13.5242 -44.7145 
9.10731 43.0994 -12.8794 
3.12569 -14.4314 -2.04147 
-6.51928 48.3701 31.2801 
-28.9173 22.6882 -53.6195 
25.8097 35.0343 10.0592 
30.1251 33.5267 -2.52795 
8.44501 -1.38394 30.0535 
-10.3839 14.3386 40.173 
21.9796 2.33035 -55.416 
9.60502 -12.6847 -40.8491 
5.8134 21.2496 50.656 
12.7518 9.28181 57.6486 
-31.8577 17.49 11.2314 
-15.4273 58.4801 22.5104 
-19.9035 50.7513 29.9911 
-14.8814 -46.9695 -13.1329 
-16.014 -29.1066 -16.1366 
9.00526 -6.46025 21.2298 
-22.7966 -37.1107 -45.3184 
15.748 48.4085 10.2885 
18.8786 -33.1857 -15.4852 
25.3498 -3.02649 -39.3285 
29.5387 14.5381 0.427937 
18.3093 15.9823 -19.8677 
-5.16903 17.9297 -47.0545 
21.1056 -0.104407 16.2514 
-14.64 22.9364 -42.4575 
-19.664 12.2894 -29.3948 
11.3054 17.0782 57.018 
11.6486 -55.2017 -22.4006 
22.198 12.7443 -58.5131 
27.4709 5.62293 5.82443 
-6.54928 -49.1504 2.68222 
5.97314 -41.8905 -38.5807 
-23.8314 -39.4898 -33.495 
-6.54562 -26.3727 -3.695 
-10.229 -41.9767 -46.0552 
13.0131 38.2342 -15.4902 
-22.9141 -45.2721 -57.0398 
-11.0506 -56.1993 -43.1416 
-24.8334 50.247 11.0318 
-0.82356 -59.3112 18.5446 
-9.81874 -42.6106 -47.7412 
15.8208 -1.20947 -5.36376 
10.9475 -15.2601 -39.3521 
29.3421 33.273 -5.46204 
16.7664 17.7238 -35.6638 
-0.725612 -16.7185 -2.23119 
-28.7563 8.59211 11.7444 
-1.17943 -3.63315 29.6873 
-21.1189 5.24244 -27.6646 
18.0646 17.9934 34.5008 
-2.1254 -49.298 18.3869 
-13.2499 2.31974 -53.5213 
12.5963 -29.3644 -3.48014 
-4.47119 -53.8382 -18.4618 
6.29515 36.3695 -18.6603 
13.4868 26.8044 -46.3408 
-10.2155 -40.8359 -50.3011 
2.19185 -6.40943 -2.01447 
-21.4002 -32.6968 -32.6399 
-11.1365 -5.32409 -44.4958 
-8.18284 -51.7823 -42.5551 
13.4122 8.05997 55.1021 
-14.8662 25.8771 -57.3874 
-31.0432 21.2428 20.8101 
-3.02829 29.0052 -20.686 
9.68945 -7.44477 17.3355 
-14.8069 -50.3332 -16.2217 
-30.0463 -52.4354 -46.042 
10.1287 21.4937 52.7729 
10.2702 -59.804 -34.227 
-17.6328 34.601 34.2346 
9.36704 -28.6014 -36.5339 
19.0448 -60.0652 -55.7856 
13.7894 42.7059 31.7521 
-9.9685 -4.69661 24.872 
-23.0652 -51.9782 -29.4741 
4.09327 -45.4305 -37.8183 
7.04268 -49.9155 -52.5893 
-4.44853 -56.553 15.3445 
10.9236 -17.9751 -38.3157 
21.8812 0.311248 15.5715 
13.427 7.26425 36.7651 
25.2476 14.7051 17.3009 
-17.475 -38.1535 -44.2268 
1.22817 -45.7288 -35.6789 
7.34687 -45.2617 -52.752 
-11.9915 -34.3059 -39.2483 
-1.38932 21.5636 -30.3324 
7.72795 -48.9808 10.0612 
17.8198 33.2298 34.4864 
-16.5701 -14.4355 -18.4477 
-4.6107 9.87306 -46.7464 
22.3899 32.6941 -49.5799 
11.0957 -59.6538 -53.5298 
-24.5854 5.93881 1.1327 
16.2253 -19.6365 -7.59661 
-17.3669 -15.2352 -30.838 
-6.23588 22.2371 -23.4003 
27.7843 7.29526 9.97103 
11.8008 -7.64998 10.8112 
3.40974 -54.1109 -19.6327 
-17.9071 2.82995 -4.15868 
14.9197 -38.9587 -39.5707 
-19.4375 -58.8097 -33.5156 
32.479 20.147 3.69317 
22.5179 27.7496 30.4273 
15.8414 -62.7635 -52.8752 
30.0451 28.7355 -50.9212 
-17.9876 -1.84869 -21.0325 
-17.7489 10.987 -57.6919 
14.7425 -62.3415 -38.7971 
9.62906 -45.9875 3.09985 
-5.98756 43.9248 -10.0317 
-21.0261 -0.368094 -46.4362 
27.2132 -47.3682 -58.1243 
-19.8481 7.27534 -6.98359 
15.0092 -3.13734 -46.058 
-23.6935 7.85859 -37.7707 
8.84254 -8.23886 8.05566 
-12.09 50.6212 31.8006 
-17.2655 8.58533 -20.3939 
16.8594 -63.1487 -41.6955 
-17.4375 -23.5059 -31.1888 
-14.1655 14.144 -57.6206 
29.6429 25.4089 6.30289 
12.0723 -60.8644 -35.6252 
-31.3276 25.2735 6.49311 
-17.0313 -17.7667 -31.5359 
16.0776 23.5844 -17.7985 
-12.4313 -37.6282 -55.9278 
14.25 -36.6204 -56.6268 
20.5694 18.2253 -58.542 
7.71348 -5.66995 -0.104876 
-5.99052 -51.4783 -34.4924 
5.69414 -54.7642 -21.2934 
-27.4204 6.29582 12.3184 
3.65638 -6.34795 24.7978 
19.7039 23.4984 34.048 
29.3936 18.8584 -44.8655 
-14.1558 51.9338 16.5113 
12.3991 -33.5666 -36.4301 
-10.8763 -56.7706 -30.0104 
9.92792 27.4067 -51.7896 
19.7859 -5.57194 -42.5639 
20.3211 11.7303 -20.7539 
-30.6658 14.3754 17.1391 
10.4841 2.66412 38.5288 
-26.1415 33.0037 -2.40169 
6.97855 -56.9041 -28.5247 
15.4224 7.17744 -57.9439 
-31.8779 -48.2971 -55.6127 
18.0001 32.0043 34.7596 
-24.7825 15.0339 -6.51888 
-19.5949 -59.0621 -52.6363 
11.2736 -6.44891 4.02269 
4.7935 -12.1939 -42.3372 
-9.96859 -42.7466 -53.7039 
-5.15439 -52.9814 -29.0639 
16.7446 28.1553 37.0791 
-27.2107 39.6844 7.86784 
-22.2622 58.9774 28.3603 
25.3224 -46.2556 -42.9065 
11.1989 -3.79909 24.1462 
-10.7654 31.2503 -48.948 
-21.193 -37.0665 -22.9148 
23.5344 9.85696 -26.9534 
-2.70995 51.9642 1.95276 
18.5524 -54.16 -56.9774 
19.3477 4.63474 24.1122 
17.6569 1.42821 -6.24128 
21.7572 25.6825 31.7209 
-21.0861 4.71968 27.7779 
9.62872 -40.8304 1.95985 
12.6259 25.84 -19.0314 
-24.0571 56.7375 16.2953 
-9.48446 -6.94597 18.5474 
16.1512 24.0865 -58.3333 
7.90109 49.8541 1.19159 
30.816 -44.4656 -53.0821 
28.8808 10.4743 5.27666 
-26.507 -37.3751 -57.5942 
28.6771 -39.1155 -51.3439 
-21.8499 0.16687 -32.7853 
-15.5387 25.7301 38.137 
-16.0855 -17.8388 -33.5206 
-6.80567 -10.6949 -6.89037 
-8.87668 36.5374 37.6546 
