ply
format ascii 1.0
comment VCGLIB generated
element vertex 1460
property float x
property float y
property float z
element face 0
property list uchar int vertex_indices
end_header
0.0120581 0.0638622 0.00153215 
0.0342399 -0.057162 0.00369437 
-0.012987 -0.0781921 0.0276607 
0.0241749 -0.0576007 -0.00556097 
-0.0150347 -0.0720536 0.0267731 
-0.0345412 -0.0469195 -0.00928579 
-0.024092 0.0688104 0.0267392 
0.0403246 -0.0626411 0.0261092 
0.0577495 0.0552394 0.0270101 
-0.0500925 0.0531696 0.0257021 
-0.0658491 0.0382518 0.0287283 
0.0357409 0.0534865 -0.000287302 
-0.022579 -0.0075407 -0.022247 
-0.0133471 -0.0726954 0.0230223 
-0.06232 0.035277 0.0183588 
0.0764154 -0.0256381 0.0279055 
0.0431101 -0.0613079 0.0286104 
0.0455599 0.0532659 0.0155845 
-0.0709344 0.0222355 0.0278848 
0.0587207 -0.0381505 0.00900973 
0.0176534 0.0685807 0.0212063 
-0.0241891 -0.0643569 0.0063505 
-0.0332477 0.0637393 0.0252398 
-0.00777232 0.0118176 -0.0221435 
0.0188252 -0.0750248 0.0299597 
0.00123555 -0.0476007 -0.0222418 
0.0211569 -0.0483883 -0.0154536 
-0.0408067 -0.026028 -0.0204054 
-0.042989 0.0527273 0.00799569 
0.0682044 -0.00759472 0.00859687 
-0.0315279 -0.0655299 0.0179488 
0.0538947 -0.0498787 0.0267909 
0.063544 -0.00529857 -0.000898662 
-0.0122757 -0.072475 0.0208979 
0.0232263 -0.00386742 -0.0224756 
-0.0760034 0.0105072 0.0291351 
-0.0190821 0.0101989 -0.0229899 
-0.0583838 0.00377564 -0.00947247 
-0.00322723 -0.0758175 0.0292477 
0.0309685 -0.0353936 -0.0227547 
0.019929 -0.077384 0.0298942 
0.00516209 -0.0736805 0.0229271 
0.0746137 0.018645 0.0276701 
0.0226787 0.0602531 0.0020208 
0.0576426 -0.0213676 -0.00471039 
-0.00647143 0.0088184 -0.0221783 
-0.016473 0.0119718 -0.0220974 
0.0168602 -0.0768019 0.0276302 
0.0175113 0.0236647 -0.0236982 
0.0398198 0.0323687 -0.0161328 
0.0395954 -0.0516486 0.000870743 
0.0611175 -0.0516986 0.0293828 
0.0558312 0.0465069 0.0234546 
0.0602826 -0.0302686 0.00581464 
-0.0255681 0.0672357 0.0228044 
-0.0436991 -0.0205752 -0.0192806 
0.0714024 0.00159154 0.0184421 
-0.0711295 -0.0178125 0.0265835 
0.014562 0.0605674 -0.00180519 
0.0521449 -0.000513333 -0.0159913 
-0.0738948 0.00227126 0.0260174 
0.0459756 0.036395 -0.00930627 
0.0523626 0.0489758 0.0229793 
-0.0054333 -0.000403414 -0.0220294 
-0.00392089 -0.0736226 0.0219041 
0.0331818 0.0621085 0.0174238 
-0.012623 -0.0434062 -0.0239668 
-0.0448558 -0.023972 -0.0180084 
0.00506253 -0.073131 0.0257572 
-0.053302 0.0402626 0.00741306 
-0.0675718 -0.022811 0.0143263 
-0.0701905 0.00741422 0.0132097 
-0.011526 0.0194292 -0.0233062 
0.0149454 0.0176252 -0.0225306 
-0.0116583 -0.0489227 -0.0179736 
-0.0785203 -0.00948774 0.0261237 
0.0264769 0.0382899 -0.0203961 
0.0420357 -0.061693 0.0261338 
-0.0457897 0.0345911 -0.0103809 
0.0647744 0.00942941 0.000585751 
-0.0696066 -0.0221634 0.022041 
0.0197679 0.0685028 0.0185494 
0.0168906 -0.0117948 -0.0233793 
-0.000999681 0.026245 -0.0226362 
-0.0758354 -0.0157921 0.0271471 
0.0505996 0.0333786 -0.00688525 
-0.0451311 0.0407792 -0.00436495 
-0.0644853 0.0308743 0.0175652 
-0.0115204 -0.00256823 -0.0219379 
0.0445661 0.0528305 0.00955736 
-0.018455 0.0642527 0.00554826 
-0.0486913 -0.0502169 0.0129819 
-0.0366881 0.0474011 -0.00714441 
-0.0338289 -0.0488308 -0.00927547 
0.00491361 0.062619 -0.000560245 
0.0380597 0.0372902 -0.0155225 
-0.021913 0.0537553 -0.00796957 
0.0769608 0.00834268 0.0276453 
-0.0607929 0.0246831 0.00217462 
0.0573654 0.0440358 0.0215677 
-0.0207452 0.0762631 0.0272574 
0.00181412 0.045417 -0.021133 
-0.0135262 0.0199164 -0.0233121 
0.0633463 -0.0221714 0.00571125 
0.0418586 -0.0264483 -0.0199178 
0.0709863 -0.0160328 0.0252621 
-0.0444101 0.0387741 -0.00842141 
-0.0114722 0.0518299 -0.0138728 
-0.0120507 0.0703076 0.0195109 
-0.0511575 -0.0499808 0.0140946 
0.0738834 0.0124182 0.0267895 
-0.0556609 0.0285904 -0.00158627 
-0.0653462 -0.0403644 0.0280345 
0.0477953 0.000478769 -0.0215821 
-0.0358015 -0.0341104 -0.0197226 
-0.069758 0.0232897 0.0271281 
-0.0374865 -0.0639203 0.0276825 
-0.0144048 0.00977894 -0.0230252 
0.010161 -0.0709227 0.0130613 
-0.0452325 0.0544055 0.0206171 
0.039024 0.0306025 -0.0177203 
0.0239735 -0.0566003 -0.00704226 
0.0574848 0.0392234 0.0102604 
0.0527818 0.0134259 -0.0134637 
0.00423003 -0.0416499 -0.023436 
-0.00994356 0.0631061 -0.000417701 
-0.0457339 -0.0366114 -0.00877557 
-0.0468777 0.0225057 -0.015115 
-0.0608417 -0.0175623 -0.00129494 
0.0520223 0.0132079 -0.0154327 
-0.0443112 -0.055795 0.0129454 
-0.0205764 0.075002 0.0256291 
0.0764214 0.0177197 0.0272709 
0.0778179 0.0166234 0.0263547 
-0.0621406 -0.0426263 0.0273225 
0.0468269 0.0268092 -0.0148337 
-0.0362879 0.0491988 -0.00346065 
-0.00223554 -0.0419244 -0.0243402 
0.0512498 0.0435441 0.0051758 
0.0482596 0.0611038 0.0256576 
-0.0440989 0.0485 0.00261193 
-0.0585067 -0.0372528 0.0108385 
0.0703699 0.00335141 0.0148354 
-0.0697915 0.0297127 0.0287932 
-0.037467 0.0688488 0.0281485 
-0.0194849 0.0340042 -0.0240711 
-0.0191378 -0.0250681 -0.0225476 
-0.0576362 0.0405273 0.0142547 
0.0505626 -0.0134482 -0.0170089 
0.0461134 -0.0532417 0.00967386 
-0.0518177 -0.0425288 0.00525189 
0.0501358 0.0200388 -0.0150494 
0.0125415 -0.058033 -0.00810397 
0.0623287 -0.0401377 0.0251087 
-0.0639212 0.0171455 0.00321302 
-0.0465325 -0.0389462 -0.00606395 
-0.00285811 -0.015916 -0.0220548 
-0.0223488 -0.0553335 -0.00909787 
0.0154212 -0.0249716 -0.0237406 
0.0696425 -0.0217179 0.0202829 
0.0677497 -0.023093 0.0139311 
0.00911689 -0.0762557 0.0296999 
-0.021237 0.00282219 -0.0221216 
-0.0701723 -0.0253411 0.0267707 
-0.0320904 0.00168502 -0.0224156 
-0.0587344 0.0223654 -0.0011001 
0.0622562 -0.0288094 0.00807291 
0.0338896 -0.0662215 0.0253737 
-0.00826261 -0.0075762 -0.0230383 
0.016612 0.0585808 -0.00405757 
0.0452271 0.0529255 0.0138134 
-0.0255761 0.0726101 0.0289658 
0.0243594 -0.0113904 -0.0226913 
0.0535581 0.044458 0.0135404 
0.0398084 0.0523458 0.00417751 
-0.0233002 -0.0408522 -0.0210311 
-0.0612408 0.024401 0.00493691 
0.0125892 0.0685574 0.0162853 
0.050241 0.0481512 0.0135141 
0.0056496 -0.0329395 -0.0229083 
0.0464767 0.0599848 0.0283672 
-0.0124954 -0.0295081 -0.0228024 
-0.0160128 0.0678997 0.0167355 
-0.0661865 0.0265833 0.0167849 
0.0536419 -0.0570348 0.0276399 
-0.0654325 0.0121176 0.00384646 
0.00525401 0.0441724 -0.0233934 
-0.0327184 0.0585237 0.00818158 
0.0615053 -0.00910082 -0.00392477 
-0.057547 0.0221144 -0.00510191 
-0.07342 -0.0236565 0.0276862 
0.0507157 0.00530111 -0.0169891 
0.012204 0.0580712 -0.00642618 
0.010547 0.0678054 0.00940632 
0.0497968 0.0115239 -0.0177566 
-0.0276764 0.0674911 0.0253148 
0.0264841 -0.0663977 0.0160857 
-0.00239264 0.0194587 -0.0234093 
0.0662889 -0.0104596 0.00518794 
0.0527635 -0.0495811 0.0219058 
-0.0338365 0.0713416 0.0273634 
-0.0658208 -0.0130823 0.0041947 
0.037331 0.0570889 0.0075025 
0.0107584 0.05741 -0.00907693 
0.0723873 0.00437997 0.0194467 
0.0193633 -0.0711092 0.0266646 
0.0487443 -0.031353 -0.00997758 
-0.028179 0.0680367 0.0276199 
-0.0289951 0.0653087 0.0243567 
0.0284127 -0.0260944 -0.0232316 
-0.000608047 -0.0759723 0.0292535 
-0.0259903 0.0653451 0.0192896 
-0.0508914 0.0183489 -0.0131742 
0.0606828 0.0338282 0.0126491 
0.0461405 -0.0389834 -0.00838442 
-0.0696071 -0.0105127 0.0120901 
0.0324273 0.0489771 -0.00883369 
-0.00230672 0.0698461 0.0132945 
0.0473179 0.0518464 0.0155859 
0.0165746 0.0557377 -0.00940042 
0.0451502 -0.0507224 0.00654501 
0.0010183 -0.0205478 -0.022274 
0.0519476 0.0237656 -0.0101735 
0.0244185 -0.0183873 -0.0238075 
-0.0493901 0.0524802 0.0222191 
0.00339331 -0.0610548 -0.00565665 
0.0628493 -0.0345056 0.0140089 
-0.0625976 -0.00488526 -0.00187605 
-0.0577928 0.00952562 -0.00944173 
-0.0388119 -0.0674073 0.0281254 
0.0340615 -0.00268319 -0.0228515 
0.0136643 -0.0532787 -0.0146685 
-0.0592248 -0.049122 0.0295729 
0.0461962 -0.0395294 -0.00624308 
0.0266301 -0.0551581 -0.00605873 
-0.0601586 0.0346942 0.0108207 
0.0706232 0.0150676 0.018203 
0.0290571 -0.0685811 0.0254539 
-0.0226687 0.0197464 -0.0233139 
0.0677414 0.0423955 0.0263757 
0.0614174 -0.0291799 0.00468165 
0.0351776 0.041117 -0.0146365 
0.0705593 0.00941578 0.0188146 
-0.0465197 -0.0439114 -0.000845265 
0.0405238 -0.0277851 -0.0203436 
-0.0240117 -0.00228329 -0.0221843 
0.0314987 0.0464918 -0.0108858 
0.00752976 0.0680773 0.0120149 
-0.0550508 -0.0488531 0.0240572 
0.00412058 0.0758583 0.026653 
0.0657173 0.027933 0.0198486 
0.0453357 -0.0275482 -0.0166021 
0.0193565 -0.00175963 -0.0223971 
0.047442 -0.0152644 -0.0182068 
-0.0633591 0.0106036 -0.000824001 
0.0114215 -0.0303898 -0.0238575 
0.0761458 -0.0117744 0.0294426 
0.0560205 0.00363622 -0.0117455 
-0.00569555 -0.0429483 -0.0242249 
-0.00150437 0.0359687 -0.0230381 
-0.0348562 0.0275154 -0.0223741 
0.0368449 -0.0528914 -8.51749e-05 
-0.0229053 0.055357 -0.00545703 
0.0104487 -0.0661341 0.0020865 
0.0340516 -0.0531911 -0.00251855 
-0.0585793 0.0346228 0.00751773 
-0.0757372 0.0139612 0.0291168 
0.0546047 0.0566879 0.0281175 
0.0595769 0.021044 -0.00185311 
-0.0139298 -0.0508681 -0.015676 
0.0474797 0.0364824 -0.00780191 
0.0196551 -0.0388738 -0.0232098 
-0.0659039 0.0141136 0.00769428 
-0.0605417 0.036877 0.0198517 
-0.00631897 -0.0581671 -0.0107604 
0.0372376 -0.060141 0.013365 
-0.0407283 0.0250404 -0.0190346 
0.00202276 0.0620657 -0.00167696 
-0.0201834 0.0531266 -0.010807 
0.0175352 0.0279529 -0.022934 
0.0685864 0.0285258 0.0261051 
-0.057178 0.0264831 -0.000974603 
-0.0465725 0.0121851 -0.0198896 
-0.036371 0.00270563 -0.0236221 
0.0243386 0.0678992 0.0229625 
0.0453057 0.0509912 0.00733085 
0.0181293 0.0638836 0.0060219 
0.0525545 -0.034748 -0.00279213 
-0.0102294 -0.0658585 0.00369383 
-0.050983 0.0447653 0.00724579 
0.0575085 -0.0429144 0.0139925 
-0.0211252 -0.0547066 -0.0104351 
0.0404233 0.0554399 0.0085064 
-0.0319549 0.049848 -0.00629832 
-0.0308075 -0.0676867 0.0258295 
-0.053448 0.0388779 0.00356549 
0.0561752 0.0239003 -0.00490944 
-0.0440132 0.0537804 0.0153603 
0.0239552 0.0756715 0.0269006 
-0.0076095 -0.0165329 -0.0231711 
-0.0682299 -0.0144847 0.0100248 
-0.0288476 3.75081e-05 -0.0223105 
-0.00611547 -0.00716693 -0.0230441 
-0.0146663 0.062632 0.00030839 
0.0312414 0.0279847 -0.0236947 
0.00358849 0.0600066 -0.00514025 
0.0628031 0.00344045 -0.00385282 
0.0679804 0.0248206 0.0246152 
0.0289492 0.0381733 -0.0202222 
-0.00193729 -0.0574522 -0.0118378 
0.000582123 0.0242564 -0.0226696 
-0.00135914 -0.0616024 -0.00677884 
0.0322561 0.045242 -0.012746 
-0.00973059 0.0454139 -0.0212473 
-0.0354307 -0.0692486 0.0281262 
0.0367125 -0.0715757 0.0269701 
-0.0409673 0.0569171 0.0138511 
-0.0544947 -0.026219 -0.00610217 
0.0620067 -0.0224786 0.00279255 
0.038775 -0.0627487 0.0225976 
-0.066138 0.0274003 0.022804 
0.0190503 0.0119045 -0.0233632 
0.0219541 0.0239058 -0.0237976 
0.0507892 0.0224686 -0.0121182 
0.0321126 -0.062332 0.00892464 
-0.0773133 0.0187422 0.0281308 
-0.0482522 -0.065024 0.0276912 
-0.0701801 0.00193733 0.0154668 
0.0319814 0.0552503 0.000648035 
-0.033998 0.0421285 -0.0126605 
0.0421448 -0.049127 0.000319877 
-0.0214397 -0.0787302 0.0280285 
-0.0319949 -0.0432013 -0.0154088 
0.0369377 -0.0339262 -0.0180605 
0.0518729 0.0475096 0.0156659 
-0.0742683 -0.00772044 0.028032 
-0.073545 -0.00253196 0.0251631 
-0.00430148 -0.0415098 -0.0233663 
-0.0659055 -0.0409037 0.0296118 
-0.0155132 -0.0699085 0.0201964 
-0.0182731 0.0687403 0.0182431 
0.00632823 -0.0567752 -0.0124437 
-0.0239001 0.024708 -0.0235528 
0.0339658 -0.0471242 -0.0114169 
-0.0520394 -0.0495178 0.0195684 
0.0404155 0.0250391 -0.0208914 
-0.0677257 -0.0149832 0.0116697 
0.0451259 -0.0330446 -0.0124087 
0.0399145 0.014789 -0.0235356 
-0.0365634 0.0288758 -0.0212529 
0.0580924 -0.0478012 0.0285752 
-0.012472 -0.0719038 0.0243662 
0.0119439 -0.0612972 -0.003709 
0.0370155 -0.0499637 -0.00611671 
-0.017343 0.0559239 -0.00860254 
0.0671693 -0.0210075 0.0137361 
-0.00329033 -0.0619261 -0.00618725 
-0.0394298 0.0229918 -0.0212247 
0.00843348 -0.057171 -0.0101984 
0.0236978 0.00580083 -0.0223391 
0.0220816 -0.0123127 -0.0235668 
-0.0511374 -0.0319986 -0.00765674 
0.00623243 0.0700847 0.018469 
-0.0480346 -0.0229137 -0.015837 
0.0586361 -0.025444 -0.00298474 
-0.0023331 0.0702306 0.0185664 
-0.0700862 -0.00600123 0.0150269 
-0.0608329 0.0299731 0.00898753 
-0.00330525 0.0515884 -0.01648 
-0.0207411 0.0657305 0.0102869 
-0.0191279 -0.044263 -0.0212472 
0.0220033 -0.0605623 -0.000573486 
-0.0619032 -0.00686242 -0.00233022 
-0.0455107 -0.0454538 -0.0019282 
-0.0451524 0.060115 0.0284211 
-0.0237507 0.0332642 -0.0234935 
-0.0257642 -0.0630334 0.00718712 
-0.0604293 0.0352673 0.0155806 
0.0719946 -0.00493497 0.0167265 
0.00622236 0.0713173 0.0204527 
-0.0525535 -0.0476688 0.0124482 
-0.0623765 0.0390543 0.025986 
0.0662725 -0.00488918 0.00208245 
-0.0121506 0.0306912 -0.0236984 
-0.0288818 0.0144868 -0.0224188 
0.0532879 0.0430557 0.00772688 
-0.0342602 -0.0119497 -0.0228282 
-0.0458265 -0.017703 -0.0194779 
-0.0130064 -0.0279593 -0.0235796 
-0.00878312 -0.0177687 -0.0222169 
0.0417337 -0.0530998 0.00528717 
0.0630833 0.00616329 -0.00134325 
-0.0692096 0.0109288 0.011832 
-0.0299668 0.0637229 0.0190749 
0.000899729 -0.0674441 0.00320534 
0.0782498 0.00817355 0.0291986 
-0.0305318 0.0116791 -0.0232143 
0.0466818 0.0549752 0.0214858 
0.0246948 0.0231021 -0.0238393 
-0.0267178 -0.0218507 -0.0238657 
0.0567416 0.0367901 0.0054854 
-0.0688804 -0.0185782 0.0186968 
-0.0116293 0.0500938 -0.0166048 
-0.0670963 -0.0439472 0.0268803 
0.00768913 0.0703129 0.0204904 
-0.0187493 -0.0649858 0.00378866 
-0.0716025 -0.0084428 0.0183237 
-0.00846089 0.0602325 -0.00376941 
0.00336453 -0.0696411 0.00804532 
0.0240963 0.042351 -0.0192946 
0.00329982 0.0635001 -0.00114678 
-0.0563161 -0.022541 -0.00578795 
-0.0235749 0.0646353 0.0100329 
0.0353453 -0.0587055 0.00789134 
0.0654166 -0.0429847 0.0297126 
0.0239687 0.0646741 0.0123627 
-0.0317745 0.0602056 0.0080463 
-0.0328702 0.0614626 0.0163739 
-0.0296561 0.0634402 0.0139168 
0.0512432 0.0265714 -0.0092998 
-0.050995 0.00473093 -0.0162105 
0.0170104 -0.0518901 -0.0136795 
-0.0227465 0.0748205 0.0259798 
0.0517394 0.0360433 -0.00305613 
0.0613244 0.035843 0.0189365 
0.0154145 0.0445959 -0.019531 
-0.0187057 -0.065262 0.00658851 
0.0567552 -0.0573122 0.0289878 
0.0234811 0.0592893 0.000744633 
-0.0480231 0.0102968 -0.0190332 
-0.0581802 -0.0335013 0.00394259 
-0.0455854 0.0366364 -0.00760344 
0.0271766 0.0657817 0.017506 
0.00386173 0.0739702 0.0262654 
0.0219457 0.0587478 -0.00113604 
-0.0451572 0.0132733 -0.0200253 
-0.0196676 -0.0337364 -0.024162 
-0.0310926 0.00971789 -0.0232181 
-0.0590874 0.0484055 0.0288641 
0.0291503 -0.00444347 -0.0226047 
-0.0336347 -0.0309026 -0.0233761 
-0.0249871 0.0459237 -0.0158194 
0.0196968 -0.0696702 0.020218 
-0.0303014 -0.0719559 0.030113 
-0.0249505 0.0552855 -0.00589512 
-0.0681144 0.0301749 0.027992 
-0.0122829 0.00184525 -0.022024 
0.0253997 -0.0651502 0.011338 
-0.0359399 -0.0514954 -0.00458252 
0.0272261 0.0593369 0.00184794 
-0.0539295 -0.0513536 0.0264941 
-0.0682316 0.0177006 0.0131859 
0.0457662 -0.0601222 0.0289234 
-0.0163908 0.0660191 0.0106302 
-0.0141308 -0.0302135 -0.0237438 
-0.0213318 0.045415 -0.0166287 
0.0666436 -0.0167335 0.00642305 
-0.0701742 -0.036727 0.029497 
-0.0162309 -0.0082511 -0.0231042 
-0.0668307 -0.0138473 0.00906019 
-0.0313448 -0.0670559 0.0275115 
-0.0480619 0.0485896 0.00844883 
0.014377 0.0682861 0.0159906 
-0.0698208 0.038258 0.0272626 
0.0535537 0.000716097 -0.015945 
-0.0619315 0.0332524 0.0165921 
0.0613571 0.0173277 -0.00242399 
-0.0244002 0.046777 -0.014091 
-0.0665651 0.0115405 0.00586237 
-0.0604457 0.000992826 -0.00708047 
0.0324474 -0.0710083 0.0281327 
-0.0556474 -0.0462912 0.0176084 
0.0295958 0.0272892 -0.0234134 
0.0242909 -0.045335 -0.0181485 
0.0481866 0.0225191 -0.0146282 
0.0459208 0.0217675 -0.0179286 
0.0637452 0.0468139 0.0258893 
-0.0231657 0.0374876 -0.0236843 
0.0222399 0.0466388 -0.0156029 
0.0500208 -0.023828 -0.0142074 
0.0422956 -0.0681281 0.0267887 
-0.041773 0.023395 -0.0200922 
0.0556343 -0.029703 -0.00445615 
-0.0121576 -0.0703079 0.0169571 
0.0524387 -0.0373492 -0.000264671 
-0.0598305 -0.000808549 -0.00656474 
-0.0341108 -0.0525152 -0.00490934 
-0.0411552 0.00455267 -0.0241392 
-0.0270933 -0.0585647 -0.00196364 
-0.0106207 0.050563 -0.015084 
0.00553182 -0.0625928 -0.00331051 
-0.0173225 -0.0663114 0.00567998 
0.0380716 -0.0653909 0.0290139 
0.0653018 -0.0215947 0.00869818 
0.0459179 0.0518078 0.0125557 
-0.00690747 0.0426433 -0.0241361 
0.0415942 -0.0587939 0.0195585 
0.00569559 0.0746909 0.0280217 
0.0592441 -0.0298639 0.00138967 
-0.0217683 0.0707599 0.0277729 
0.016136 0.0771404 0.0258372 
0.0425826 0.0547906 0.0102549 
0.0543633 0.00594647 -0.014632 
-0.0276995 -0.075769 0.0271165 
0.0215221 -0.0778226 0.0271734 
0.0478658 0.0438968 0.00324891 
-0.0483629 0.0419883 0.0016164 
0.0335198 0.0141338 -0.0238675 
-0.0520278 -0.0528096 0.0257887 
-0.0281717 -0.00949602 -0.0224252 
0.0489614 0.0400672 -0.000556098 
0.0554482 -0.0162765 -0.0113312 
-0.0518811 0.025232 -0.010227 
0.07546 0.0115254 0.0275362 
-0.0636486 0.00585264 -0.00170231 
0.0462137 -0.0339987 -0.0107252 
-0.0561555 -0.0334465 0.000217037 
-0.00991337 0.0621849 -0.00206791 
0.0542165 -0.00764169 -0.0145264 
0.0141161 0.042531 -0.0231953 
-0.0538123 -0.0464398 0.0128686 
-0.0268188 -0.0766995 0.0283507 
-0.000530244 -0.059051 -0.00861868 
0.0416508 -0.0362689 -0.0144736 
-0.0493242 0.0280778 -0.00990711 
-0.0337053 0.0573302 0.00687749 
0.0191019 0.0260793 -0.0238002 
0.00513051 -0.0250008 -0.0225948 
0.0470671 -0.0148709 -0.0198816 
0.0410292 -0.0382165 -0.0122862 
0.0675268 -0.0120318 0.00884918 
-0.0387569 -0.0496131 -0.00436407 
-0.0144762 0.0691933 0.0163949 
0.0737317 -0.00675986 0.0254831 
0.0553335 -0.0546795 0.0281834 
-0.0708407 -0.0168183 0.0214379 
-0.0209633 0.0634994 0.00544498 
0.0558388 -0.0146682 -0.0100454 
0.0017814 0.0708594 0.0215221 
-0.021914 -0.0266627 -0.0229197 
-0.0261815 0.0368278 -0.0227152 
-0.0584636 0.0142832 -0.00719073 
0.0626786 0.0325061 0.0163116 
-0.0477142 -0.0362815 -0.00838304 
0.0126591 0.0691516 0.0143424 
0.0174088 0.0349242 -0.0233465 
0.0695104 -0.00836983 0.00955677 
0.0644403 -0.00973968 -0.00046765 
0.0345218 -0.064513 0.0252182 
-0.00571572 -0.0224927 -0.0233414 
-0.00457485 -0.0243372 -0.0224889 
-0.050491 -0.0534841 0.0233546 
-0.0191646 0.0191906 -0.0223884 
-0.065495 0.0264165 0.0140361 
0.0453309 0.0602315 0.026856 
0.0708195 -0.0102813 0.0142747 
0.062876 0.0394773 0.0275621 
-0.0725642 0.0316808 0.0284432 
0.0485632 0.0416302 -0.00142593 
-0.0689394 0.0217795 0.0209912 
0.071181 0.0173322 0.0242882 
-0.062383 -0.0341949 0.016692 
0.0323205 0.000922135 -0.0236179 
0.0316598 -0.0335013 -0.0221886 
0.0564303 -0.0551872 0.0299176 
0.0341632 -0.0558751 -0.000741614 
0.0727372 0.0325507 0.0265586 
-0.0648062 0.0282461 0.018514 
0.052232 0.0467569 0.0120902 
-0.0779928 0.00552912 0.029389 
-0.0597477 0.0409253 0.0238291 
0.0525451 0.0485461 0.0175912 
-0.0736746 0.0267971 0.0291702 
0.0154541 -0.0603748 -0.00582669 
0.0179935 -0.0729831 0.0286663 
-0.0559594 -0.0169726 -0.00993609 
0.0444368 -0.0297497 -0.0148122 
-0.0228342 -0.0677292 0.0191938 
0.071192 -0.025829 0.0275065 
-0.0372841 -0.000362961 -0.0228171 
-0.0739665 0.0248805 0.0290569 
-0.0487078 -0.0380157 -0.00440876 
-0.0273863 0.0134099 -0.0231444 
0.0332043 -0.0729672 0.026725 
0.0273388 -0.0489025 -0.0136901 
-0.0153803 -0.0653957 0.0049239 
-0.00800685 -0.0355576 -0.0230828 
0.0638377 -0.0336825 0.01579 
0.0717278 -0.0161221 0.0235939 
0.0110931 -0.0736251 0.0254573 
-0.0327162 0.0703323 0.0255028 
-0.0464787 0.0145531 -0.0192889 
0.00557736 0.0532369 -0.0132135 
-0.0270671 0.061817 0.00930742 
0.00971706 0.0774296 0.0285391 
0.0194491 -0.00938847 -0.0233992 
-0.0704014 -0.0140308 0.0168341 
-0.0703022 0.0348944 0.0289049 
-0.0249079 0.0641879 0.0131919 
0.00268552 0.0148229 -0.0223392 
0.0173679 -0.0626698 -0.00134433 
0.000801688 0.0648029 0.00125669 
-0.0480157 -0.0593025 0.0293441 
-0.0518486 -0.0462077 0.0115063 
-0.0446741 -0.0221013 -0.0177422 
0.0682667 0.0219417 0.0213255 
0.0702806 0.0317092 0.0289216 
-0.00978295 -0.0724749 0.0251139 
0.0609862 0.0376993 0.0177804 
0.0183857 0.00836076 -0.0232494 
-0.0208632 -0.0090235 -0.023174 
0.0329988 -0.0659352 0.0270213 
0.0150463 0.0648299 0.00657101 
-0.0224194 0.0177303 -0.0222726 
-0.0376067 -0.0620981 0.0241013 
-0.0404139 0.0179032 -0.0236992 
-0.0425759 0.0435147 -0.00369977 
-0.0528977 0.0442263 0.00986189 
-0.0484527 -0.0354924 -0.00672501 
-0.0303402 -0.068986 0.0287725 
0.0688602 -0.0260184 0.0270157 
0.0629041 0.0336994 0.0201377 
-0.010844 -0.00109987 -0.0229725 
0.00806119 0.0697452 0.0179949 
0.0271316 -0.0109148 -0.0227205 
-0.0267634 -0.0136985 -0.0225912 
-0.0165821 -0.0707268 0.0170512 
-0.0398931 -0.053202 0.00193382 
-0.0432011 -0.049545 0.000547894 
0.0578636 0.0536202 0.0258053 
0.0400977 -0.0211692 -0.022796 
0.0502107 -0.0546689 0.0276708 
-0.0297387 0.0639436 0.0156548 
-0.00583925 0.075865 0.0285319 
0.0281687 -0.0401801 -0.0204776 
-0.0212639 -0.0755798 0.0282334 
0.00897261 -0.0555805 -0.012119 
-0.0440632 0.0105416 -0.0229388 
-0.0244597 -0.0690634 0.020281 
-0.0310581 -0.00887518 -0.0234784 
-0.0645311 0.0330601 0.0235063 
-0.00919275 -0.0713865 0.0195272 
-0.02842 0.0647931 0.0165542 
-0.0474666 -0.0510161 0.0119702 
-0.0401558 -0.0439257 -0.00775952 
-0.070422 -0.016113 0.0186086 
0.0089659 0.0586549 -0.00792033 
0.0336878 0.0474569 -0.00825979 
0.0184411 -0.0173228 -0.022684 
-0.0443218 -0.025305 -0.016636 
0.0262981 0.00825475 -0.0224233 
-0.0650804 0.0282659 0.0153183 
0.0317728 -0.0567686 -0.00145795 
0.0282659 -0.0658749 0.0171034 
-0.0684517 0.0243481 0.0235011 
0.06007 -0.0381917 0.0123067 
0.068942 0.0111695 0.00980959 
0.050978 -0.0349868 -0.00634711 
0.0549128 0.0452117 0.0153748 
0.0419496 0.0547352 0.0123962 
-0.0236475 0.0443814 -0.0175767 
-0.0554707 0.0219147 -0.00784837 
-0.0771061 0.00366174 0.0273661 
-0.0652121 0.0230732 0.00963943 
0.0117538 -0.04362 -0.0228299 
-0.0202427 0.0694096 0.0241043 
-0.0346425 -0.0552819 -0.000631308 
-0.0702952 -0.00385209 0.0122986 
0.0243164 0.0356 -0.024046 
0.0691353 -0.0252349 0.0235573 
0.0489483 -0.0466034 0.00376551 
0.0620728 0.00977283 -0.00410611 
-0.0683906 0.0223683 0.0194173 
-0.021236 0.0270449 -0.0228074 
-0.0486735 0.00205025 -0.0198135 
-0.042791 0.0116716 -0.0236846 
-0.0130539 0.0569655 -0.00889298 
-0.00226556 0.00194005 -0.0231179 
0.00237647 0.0129744 -0.0222777 
0.00261442 -0.0136609 -0.02218 
-0.0708555 0.0104485 0.0217699 
-0.0245955 0.0742611 0.0285701 
0.0122494 0.0456119 -0.0195928 
-0.0406903 0.0544561 0.0103225 
0.0648342 0.00383039 -0.000721723 
-0.0586962 0.0320895 0.00706933 
0.0655736 -0.0329522 0.0263176 
-0.00164907 -0.00919902 -0.0221384 
0.0238364 0.0441402 -0.0180915 
-0.0381347 -0.0716985 0.0279525 
-0.00989486 -0.0497845 -0.0185657 
-0.0103961 -0.075528 0.0279297 
0.0200926 -0.0168051 -0.0236411 
-0.0488315 -0.0615975 0.0300681 
0.0526024 -0.0401317 0.00312007 
0.0161947 0.0487355 -0.0168271 
-0.0337417 -0.0473377 -0.0108252 
0.0137622 -0.0448866 -0.0213436 
-0.0547636 0.000832983 -0.014009 
-0.0356723 0.0385762 -0.014503 
-0.0424118 0.0389385 -0.00859068 
-0.0555498 0.0555683 0.0288118 
0.0700596 -0.013122 0.0171829 
0.0463204 -0.0036274 -0.0217244 
0.0133661 0.0495486 -0.0168041 
0.0260314 0.0336525 -0.023398 
-0.0348077 -0.0289093 -0.0235231 
0.0724087 -0.0114283 0.0263064 
-0.0734252 -0.00143034 0.026587 
-0.00977043 -0.0202759 -0.0223284 
0.0312917 0.0577085 0.00432906 
0.00847559 0.0671973 0.00738162 
-0.0601916 0.0399094 0.0223853 
0.0510974 -0.0368934 -0.00449644 
-0.0375421 0.0556423 0.00853115 
0.018322 0.0747864 0.028694 
-0.0476673 -0.0551377 0.0236224 
-0.0206023 -0.0277806 -0.0238386 
0.0749405 0.00956581 0.027273 
-0.0542017 0.0469639 0.0199503 
-0.06237 -0.0211684 0.00344559 
-0.0452806 -0.0571191 0.0256999 
-0.0428611 -0.0414718 -0.0088365 
-0.0385841 -0.0304055 -0.0198899 
0.0414517 0.0321333 -0.0151676 
-0.010892 0.010978 -0.0222185 
-0.0366665 -0.0453803 -0.0105261 
-0.0145727 0.0644321 0.00383559 
0.0387151 -0.000576654 -0.0232297 
-0.00142178 0.0454851 -0.0224239 
-0.0710412 -0.0071028 0.0193722 
0.0163866 -0.0646959 0.00172666 
0.0178969 0.0619134 0.00226107 
0.0338003 -0.0678044 0.02766 
-0.0339107 -0.0221618 -0.0242491 
-0.024106 -0.0610993 0.00209206 
-0.0653499 0.0253744 0.0155175 
0.0691698 0.00762902 0.00893868 
-0.0722909 -0.00498644 0.0244388 
0.0371426 0.0474846 -0.00543389 
0.0197789 -0.0228015 -0.0237635 
0.0348115 0.0189554 -0.0233075 
-0.0712805 0.0351294 0.0268633 
-0.0510549 -0.0236555 -0.0114182 
0.00235795 -0.0551204 -0.0133286 
-0.0560758 -0.0498053 0.0269694 
-0.036823 -0.0603357 0.0148077 
-0.0516301 0.0166855 -0.0129266 
0.00154964 -0.0317118 -0.0227234 
0.00338333 -0.0471424 -0.0225734 
-0.0307424 0.0622735 0.0117375 
-0.00164513 0.0767778 0.0285417 
0.0495686 -0.0358975 -0.00562304 
0.0077096 -0.0498153 -0.0178006 
0.0283223 -0.0431234 -0.0179349 
-0.0428021 -0.0216529 -0.0207415 
-0.0254425 0.0643043 0.0109669 
-0.00665395 0.0700886 0.0197263 
-0.0646771 0.00568362 0.00233976 
0.0463039 -0.0190452 -0.0193883 
-0.0183441 -0.047244 -0.0185338 
-0.00246029 0.054533 -0.0120364 
0.000905467 -0.0339364 -0.0238726 
-0.0271407 0.063672 0.0142936 
0.0274291 0.00144028 -0.0234056 
0.0101659 0.0584412 -0.0063872 
0.0492831 0.0184362 -0.0153152 
-0.0188992 0.000931169 -0.0220884 
-0.0373069 -0.0151184 -0.0234291 
0.00305126 0.0311211 -0.0228902 
-0.0722198 0.00460646 0.0245138 
0.0792324 0.00445321 0.0290575 
0.0297581 0.0732105 0.0281095 
-0.0502563 0.0111957 -0.0170354 
0.0108753 -0.00565714 -0.0222377 
-0.0796368 0.0044619 0.0285245 
-0.0429068 0.0537003 0.00970134 
0.0552824 -0.0489097 0.0239895 
0.018029 -0.0702303 0.0161761 
0.0119502 -0.0641501 0.000571897 
-0.0722196 0.00215818 0.0239641 
-0.001382 0.0513081 -0.0156852 
0.0610733 0.0297835 0.00813925 
0.0760055 0.0218595 0.0291303 
0.0692186 0.0360968 0.0290423 
0.00439839 0.0350066 -0.0230218 
-0.0349855 -0.0458806 -0.0113559 
0.0583475 -0.0556656 0.0268309 
0.0108391 0.0149217 -0.0233669 
-0.00114278 0.0687337 0.0126116 
-0.0351619 -0.0494688 -0.00611571 
-0.0508186 -0.00104748 -0.017672 
-0.0522726 -0.015547 -0.0144228 
0.0267301 0.0609601 0.00629041 
0.0695209 0.0171702 0.0203582 
0.0436554 0.0565456 0.0230062 
0.0722871 0.00803315 0.0211354 
-0.0605972 -0.0230378 -0.000482784 
0.0165169 -0.0593388 -0.0068184 
0.011871 0.048298 -0.0172517 
-0.0504681 0.0374001 -0.0027591 
-0.0127387 -0.00118197 -0.0219929 
-0.050564 -0.0411487 -0.000209128 
-0.0597871 0.0133833 -0.00562931 
-0.0632011 -0.0328654 0.0140128 
0.0689965 0.0212382 0.0186253 
0.0276043 -0.0491259 -0.0119717 
0.0267499 0.074912 0.0272264 
0.0158948 0.00032698 -0.022234 
0.0544645 0.0416086 0.00761974 
-0.0256453 -0.0233557 -0.0228874 
-0.00826696 -0.0148897 -0.0221751 
-0.0025133 -0.0139161 -0.0231321 
0.0207601 -0.0297548 -0.0230658 
-0.0358544 0.0593696 0.0147354 
0.0709329 -0.0342007 0.0268799 
-0.0213861 0.0308243 -0.0238929 
0.0155028 -0.0721294 0.0226542 
-0.00805548 -0.0658592 0.00115516 
0.0126345 -0.0687955 0.0108993 
-0.0641364 0.0416523 0.0289604 
-0.0362058 -0.0631815 0.0248632 
-0.021839 -0.0361198 -0.0243749 
0.0198479 0.0571697 -0.00477617 
0.0572476 -0.0459555 0.0212888 
-0.00740208 0.0684038 0.00991243 
-0.0130676 0.0361616 -0.023224 
0.0397555 0.0227062 -0.021649 
0.0393963 -0.0670469 0.0300274 
0.0645253 -0.0159039 0.00174831 
-0.0157926 -0.0445913 -0.0223119 
0.00882429 -0.0327764 -0.0239115 
-0.0327848 -0.00162085 -0.0225972 
0.0062429 -0.0646722 0.00034659 
-0.0306503 -0.0353057 -0.0212446 
-0.0734737 0.00109069 0.0246983 
0.0474874 0.0455075 0.00229259 
0.0632827 -0.0350238 0.0211696 
0.0428419 0.0110542 -0.023863 
-0.0549317 0.00582214 -0.012055 
0.0719337 -0.0101726 0.0191098 
-0.0418936 -0.0656831 0.0299405 
-0.020487 0.0613573 0.0031898 
-0.065517 -0.00691515 0.00185317 
0.0473913 0.0139743 -0.0193735 
-0.00420877 0.0501094 -0.0177246 
-0.0732861 -0.0318743 0.0292084 
0.0230438 -0.0486652 -0.0158418 
0.0570958 0.035599 0.00729746 
-0.0623578 -0.0347403 0.0144717 
-0.021714 0.0509876 -0.0124775 
-0.000806935 0.0028725 -0.0220555 
-0.0405107 0.0598017 0.0260466 
0.0495946 0.0310995 -0.00956055 
-0.0642557 0.0362604 0.0261455 
0.071599 0.00446246 0.0211521 
-0.0467663 0.0443763 0.000402939 
-0.0553021 -0.0109521 -0.0107222 
-0.0225234 -0.0475847 -0.0155875 
0.00911791 -0.00413144 -0.0231271 
-0.0502237 0.030641 -0.00713841 
0.0563067 0.0405897 0.00981057 
-0.0492784 0.0334945 -0.00610987 
0.07457 0.0134833 0.0285524 
0.0283861 0.0423695 -0.0163062 
0.0360896 -0.00996808 -0.0231003 
0.0335407 0.0587054 0.0085315 
-0.0632437 0.0105832 0.000927172 
-0.0698936 0.0322359 0.0292095 
-0.0350173 0.0617727 0.0222002 
0.0230156 0.0534326 -0.00821834 
-0.0431452 0.0187576 -0.0209917 
0.0287264 0.0645039 0.0150468 
-0.0246145 0.0672855 0.0211191 
-0.0642207 -0.00956521 0.00210481 
-0.0568811 0.0440275 0.0249697 
-0.045808 -0.0422706 -0.00511975 
-0.0444978 -0.05406 0.00969649 
0.024083 -0.0272142 -0.0231299 
-0.0702925 -0.00794388 0.0162539 
-0.0715067 0.000300238 0.0161423 
0.0684707 -0.0246301 0.0250666 
-0.0413571 -0.0597589 0.024054 
-0.0393439 -0.0284253 -0.020403 
-0.0146169 0.0309877 -0.0228247 
-0.0400546 -0.057373 0.0124612 
0.0199351 0.0136641 -0.0234296 
-0.0539132 -0.0176032 -0.0109239 
-0.0700097 0.0314677 0.026901 
-0.00442291 0.0328933 -0.0229617 
-0.0444478 -0.000544835 -0.023661 
0.0576928 -0.00552304 -0.00945806 
0.0529237 -0.046415 0.00978175 
-0.0679476 -0.000135031 0.00640883 
-0.0592431 -0.0126904 -0.00578115 
-0.0708873 0.0265405 0.0275062 
0.0131256 0.00773487 -0.022305 
0.0208281 0.0395838 -0.0234543 
-0.014574 -0.0108053 -0.0220019 
-0.0232945 -0.0736624 0.028379 
0.0621312 -0.0345384 0.0157703 
0.0121748 -0.0611539 -0.00587235 
0.0234249 -0.0426856 -0.019386 
-0.0449077 -0.0557495 0.0178588 
0.00246484 0.0649487 0.00347524 
0.0508197 0.0509558 0.0202139 
-0.069871 0.0155576 0.0173923 
-0.0474464 -0.0156206 -0.0176592 
-0.0232149 -0.0243067 -0.0237636 
-0.00041687 0.0111235 -0.0232159 
-0.0570952 -0.057161 0.027337 
-0.0532175 -0.0086337 -0.0136228 
-0.0511619 -0.0281383 -0.0102782 
-0.0132069 0.0291276 -0.0227722 
-0.0256061 0.0710832 0.0271143 
0.0551977 -0.026274 -0.00561302 
0.00677454 -0.0714944 0.0137048 
0.0209562 -0.0631128 0.00352347 
0.0515936 -0.0618522 0.0296331 
-0.0458394 0.0102981 -0.0211352 
0.0377793 0.00950291 -0.0231807 
0.0358622 0.00152829 -0.0229514 
-0.0218327 0.0599387 -0.000579521 
-0.0525887 -0.0524816 0.0274613 
-0.0706269 0.00415991 0.0136671 
0.0324715 0.0633517 0.0215746 
0.0697636 0.0235907 0.025306 
-0.0444608 0.04227 -0.00293638 
-0.0323563 0.0712949 0.0284651 
-0.0507564 -0.0540111 0.0254762 
-0.0464862 0.0390973 -0.00434322 
0.0483154 -0.0436643 -0.00115394 
0.0719519 -0.00116989 0.0217867 
0.0517926 -0.0515517 0.0253749 
0.0699182 0.0119903 0.0171577 
-0.0542527 0.0344617 -0.000257891 
-0.0204504 -0.0229705 -0.0226298 
-0.00149015 -0.0739616 0.0231854 
-0.0649748 -0.0255442 0.0125534 
0.0649657 -0.0230753 0.00675989 
-0.0373191 -0.0685415 0.0280262 
0.00462724 -0.0141657 -0.0231732 
-0.0559766 0.0431498 0.0148637 
0.0363814 -0.00272909 -0.023981 
-0.0364518 -0.0721133 0.0288397 
-0.00506398 0.019607 -0.0224826 
0.0408804 0.0559192 0.0131563 
0.00731166 0.0608019 -0.00515129 
-0.0053341 0.0652612 0.00250226 
0.0677326 0.00602326 0.00558791 
-0.0411339 0.0550061 0.012083 
-0.0690878 -0.019414 0.0207409 
-0.0797153 -0.00390143 0.0287786 
-0.017494 0.0409314 -0.0233798 
-0.00680879 -0.0486646 -0.0202728 
0.0509062 0.016229 -0.0154364 
0.0418743 0.0341653 -0.0146751 
-0.068012 -0.00460119 0.00678674 
0.00317424 0.0718606 0.0226238 
-0.0602825 0.0278744 0.00394208 
0.0424035 -0.0416007 -0.00974972 
0.0277296 0.0194317 -0.023811 
-0.0106854 -0.0689764 0.0117966 
0.00144215 0.0428292 -0.0233109 
-0.0160841 -0.0559312 -0.00966185 
0.0577298 -0.00891326 -0.00906118 
-0.05957 -0.0249085 -0.000934286 
-0.0564949 0.0137391 -0.00975947 
-0.033993 -0.0635644 0.0155183 
0.0390749 0.00489195 -0.0231813 
-0.00117436 0.0661567 0.00396171 
-0.0612245 -0.0344834 0.010873 
0.0651643 0.028038 0.0139012 
-0.0292244 -0.0655285 0.0189524 
-0.0154335 0.00176058 -0.0220344 
0.0558744 -0.0227754 -0.0084442 
-0.0320825 0.056587 0.00393912 
0.025767 0.0636343 0.0113639 
0.0372224 0.0401318 -0.0126007 
-0.0299962 -0.052711 -0.00770637 
-0.05555 -0.022923 -0.00792579 
-0.0608882 -0.00291578 -0.00640727 
0.00656471 -0.0309437 -0.0228581 
-0.0192761 0.0170999 -0.0222313 
-0.0505204 -0.0585974 0.0297409 
-0.0261877 0.066444 0.0243009 
0.0530415 -0.0144987 -0.0144653 
-0.0191662 -0.0529727 -0.0119322 
-0.028182 -0.052883 -0.00736217 
0.0613548 0.0377278 0.0195067 
-0.0155933 0.0436988 -0.0201919 
0.0642295 0.0382238 0.0277504 
-0.051134 -0.0489755 0.0119059 
-0.0310907 -0.0415355 -0.0162244 
0.00146755 -0.00662712 -0.0220149 
0.0509819 0.0120866 -0.016557 
0.0567784 -0.0460627 0.0193033 
-0.0221883 0.0677069 0.0239619 
-0.00962769 0.0680734 0.00990967 
-0.0579606 0.0126483 -0.00672198 
0.0219848 -0.0357798 -0.0243491 
0.0451751 -0.0575994 0.0255151 
0.0676967 -0.0439705 0.0273283 
-0.0621517 0.00668821 -0.00211231 
0.0296178 -0.0737508 0.0272087 
0.0572809 -0.0320265 0.00194109 
0.0487914 0.0344612 -0.00656082 
-0.0327742 0.0442567 -0.0130813 
0.0344058 0.0121144 -0.0238369 
0.0370556 -0.0516583 -0.00210566 
0.00266296 -0.0675554 0.00360067 
-0.0643181 0.0329807 0.0252996 
-0.0364273 -0.0488809 -0.0071822 
0.0326384 -0.0690757 0.0280654 
-0.00435433 -0.0483788 -0.0197741 
-0.0463959 0.0209425 -0.0173505 
0.0767433 -0.0228747 0.0291397 
-0.0481007 0.0538202 0.0231058 
-0.0145756 -0.00936209 -0.0231434 
-0.0328595 -0.0671366 0.0266023 
0.061582 -0.0183315 -0.00225708 
0.0604021 -0.0430057 0.0252548 
-0.0545416 -0.0374582 0.00175761 
0.0708558 -0.00909892 0.0181066 
0.0668823 0.00394053 0.00573273 
0.0764951 -0.0209924 0.0296442 
-0.0514752 -0.0622218 0.0273119 
-0.0228008 -0.0697989 0.0209094 
0.057585 -0.0127415 -0.00852138 
-0.0537442 -0.035558 0.000305711 
-0.0511212 0.050883 0.0224476 
0.0411164 -0.0462505 -0.00649074 
0.0696564 0.0185687 0.0231645 
0.0366066 -0.0567492 0.00343532 
0.0225956 0.0672638 0.0211776 
0.0235228 0.0460389 -0.0166298 
-0.0536046 0.0465145 0.0163558 
0.0245394 0.0530596 -0.00928284 
-0.0785942 0.00271119 0.0290986 
0.0560039 0.0300789 -0.00238849 
0.00502229 0.0407487 -0.0243307 
0.0494549 -0.0263993 -0.0135346 
-0.0658148 -0.0150437 0.00503707 
0.0701685 0.0102239 0.0129694 
-0.0580584 0.0408284 0.0161187 
-0.0405331 -0.000989661 -0.0241177 
-0.00532731 0.00529086 -0.0230187 
0.0689503 -0.0229432 0.0247493 
0.00287799 -0.0672298 0.00543084 
0.0591843 0.022059 -0.00336721 
-0.0411682 0.0579614 0.0229353 
0.0577431 0.0430875 0.0199812 
-0.0661693 -0.00780355 0.00327576 
-0.0550989 0.0413654 0.0125157 
-0.0223205 -0.0673532 0.0150231 
-0.0197914 -0.074927 0.0299514 
0.0284656 0.00858165 -0.0234046 
-0.0129928 -0.0705377 0.0212245 
-0.0277819 -0.0674995 0.0190937 
0.0395727 -0.0706678 0.0279359 
0.041553 0.0580749 0.02261 
0.0721685 -0.0131779 0.0228328 
0.0341316 -0.0236121 -0.0233822 
-0.0365398 -0.0634955 0.0205648 
0.0195377 -0.021259 -0.0228029 
-0.0684579 -0.00178941 0.00754332 
0.0379598 0.0551617 0.00495602 
0.00636458 -0.0188007 -0.0233218 
-0.0763543 -0.0186953 0.0295397 
0.00893995 0.0502663 -0.0159985 
-0.0676878 -0.0412237 0.0296485 
-0.00945971 -0.0643648 0.000687385 
0.00810477 -0.0609712 -0.00687457 
-0.0666517 0.00703161 0.00707312 
-0.0698324 0.0132256 0.0187132 
0.0711006 -0.027832 0.0291702 
-0.0339814 0.0512465 -0.0046942 
0.0497614 -0.0512669 0.0126998 
-0.0398144 0.0140394 -0.024151 
0.00668078 0.00929586 -0.0232386 
-0.0638587 -0.0221354 0.00768853 
-0.0454904 -0.050806 0.00793872 
-0.0669198 0.0367099 0.0270364 
0.0158254 -0.0571464 -0.00981563 
0.0147942 0.0493024 -0.0156154 
0.0319647 0.0125652 -0.0236777 
0.00867099 -0.0611498 -0.0049382 
-0.041211 0.0446114 -0.00400291 
-0.0612896 0.0227254 0.00163732 
-0.0447361 -0.05171 0.00594276 
0.0436009 0.0255868 -0.0170917 
-0.00388619 -0.066587 0.00159179 
-0.00188661 -0.0347315 -0.022993 
0.0703621 0.00819045 0.0126841 
-0.0393613 -0.0158602 -0.0234411 
0.0253288 -0.0541242 -0.00772615 
-0.0689348 0.0221444 0.0255653 
-0.0750382 0.0218192 0.0291845 
0.0684127 -0.0162276 0.0102881 
0.0244448 -0.0660358 0.0126032 
0.0469298 -0.0271616 -0.0141442 
-0.0480931 -0.00558828 -0.0190588 
0.0642939 0.0334187 0.0214172 
-0.0010871 -0.00752275 -0.0230463 
0.0281166 0.0577467 0.00144856 
0.0426331 -0.0454366 -0.00373304 
0.0584159 -0.0503645 0.0280941 
-0.0270331 0.0472886 -0.0121855 
0.0779526 -0.0116823 0.0296715 
-0.0669568 -0.00765737 0.00504565 
0.0511449 0.0613052 0.0275059 
-0.0422785 0.0339685 -0.0140327 
-0.0460669 0.0326817 -0.0114889 
0.0220492 0.066521 0.0132818 
0.0186453 0.0422015 -0.0218223 
-0.0562168 -0.00436345 -0.0108972 
0.0437089 -0.0559304 0.0111665 
-0.0107298 -0.0654767 0.00120847 
-0.0561919 0.0548059 0.0261225 
-0.0328059 0.0238 -0.0241062 
-0.0159995 -0.0383457 -0.0243664 
0.0417343 0.0506098 0.00412653 
0.0718163 0.0205209 0.0266255 
-0.0585938 -0.0538033 0.0297345 
0.0483255 -0.0628885 0.0299819 
0.0672645 0.0224174 0.0133934 
0.0716207 -0.0060029 0.0196635 
0.0632928 -0.05084 0.0280771 
-0.0155704 -0.0168776 -0.0232251 
0.000848512 -0.0681155 0.00713708 
0.0513138 -0.0346825 -0.00449913 
0.0642724 0.0343498 0.0257728 
0.0629793 0.0352288 0.0241996 
0.0726867 0.0207611 0.0285694 
-0.0241086 0.0588845 0.000978103 
-0.00129736 0.0076129 -0.0231432 
0.0493846 -0.0395585 -0.00237799 
-0.0384863 -0.0529319 -2.36447e-05 
-0.0770578 0.0116819 0.0263215 
0.00935545 -0.0778564 0.0277893 
-0.056175 0.035744 0.00448483 
0.0703096 -0.0343832 0.0297691 
0.00602849 0.0332943 -0.0231101 
-0.0254434 -0.0072591 -0.0232664 
0.0432227 0.0471711 -0.00109442 
-0.0277529 -0.0377785 -0.0224406 
0.0266828 0.0438265 -0.015808 
-0.0577403 0.0386374 0.0141493 
-0.0216765 -0.069872 0.0194229 
0.0102414 -0.0544776 -0.0129591 
0.0235188 0.0106079 -0.0223486 
-0.0458392 -0.00468452 -0.0225112 
-0.000520265 -0.0466289 -0.0216353 
0.0568481 -0.0177816 -0.00921052 
0.0580325 -0.0453539 0.0230863 
0.0694017 0.0145173 0.0170109 
0.0082084 -0.0726357 0.0188596 
-0.0111415 0.0467362 -0.0196163 
0.00715964 -0.0782946 0.0278623 
-0.0700977 0.0153072 0.022578 
0.0538398 -0.0363057 0.000579795 
-0.0125181 0.0552241 -0.00969655 
-0.0283887 0.0180277 -0.0225605 
0.0665241 0.0214114 0.0103255 
0.0156306 0.0412582 -0.0238392 
-0.0435581 0.00186157 -0.0230402 
-0.0719744 -0.0266822 0.0293122 
-0.0269428 -0.0673802 0.0225393 
0.0204236 0.0192103 -0.0236249 
0.0479645 0.0387328 -0.00521348 
0.0706943 -0.0306894 0.0295087 
0.0604652 -0.0118854 -0.00625853 
0.0436131 -0.0631069 0.0295999 
-0.0343694 0.0142321 -0.0236403 
0.0170322 -0.0232399 -0.0226978 
0.0617153 -0.0374544 0.0157585 
0.0576526 -0.0264147 -0.00184031 
0.0674841 0.0378113 0.0268348 
-0.000371226 0.0415241 -0.0243365 
-0.0531977 0.0275923 -0.00745213 
-0.049166 -0.0471219 0.00546074 
-0.0038071 0.0705694 0.0206452 
0.0514694 0.0448356 0.00716294 
-0.0116667 -0.0187296 -0.0232441 
0.0307499 -0.0640688 0.011352 
0.0485906 0.0593003 0.0263627 
-0.0234966 0.06187 0.00632063 
-0.00681816 -0.040893 -0.0234289 
-0.0587158 0.00649721 -0.00718684 
-0.0350579 0.0644545 0.0272813 
-0.0166111 -0.0749353 0.029643 
-0.00762684 -0.0772899 0.0285077 
-0.00824653 0.0648366 0.00246309 
0.00457132 0.0705476 0.0210834 
0.021139 -0.0569583 -0.00801819 
-0.0431819 -0.0578312 0.0210306 
-0.0492936 -0.0524651 0.0202853 
0.0310765 0.0378596 -0.0181713 
-0.0269439 0.0519213 -0.00731679 
0.0605992 0.000931315 -0.00762367 
0.0137596 -0.0381653 -0.023287 
0.023974 0.0307783 -0.0242166 
0.0717862 0.00327437 0.0159782 
0.0666971 0.011054 0.00498391 
0.0594191 -0.0402955 0.0142323 
0.0394277 0.0579297 0.0158474 
-0.0626459 -0.017449 0.00208257 
-0.00514006 -0.073799 0.023327 
-0.0110254 0.0442358 -0.0211609 
-0.0136736 0.0137402 -0.0231107 
0.0168405 -0.0615711 -0.00337402 
-0.073304 0.0146678 0.0267852 
-0.0742109 -0.00573559 0.0266846 
0.0196995 0.0236955 -0.0228225 
0.0770549 0.0182463 0.0291584 
0.0367209 0.0512015 -0.00265789 
0.00488382 -0.0508628 -0.0170495 
-0.0522029 0.0380602 0.00261963 
0.0254939 0.0155302 -0.0235576 
-0.0659066 0.0151893 0.00602099 
0.0317164 -0.0745539 0.0276343 
-0.0350409 -0.0435328 -0.0121203 
0.0706236 -0.014816 0.0164528 
-0.0410015 -0.0678804 0.0273991 
0.0523643 -0.0503691 0.0240456 
-0.0514617 0.0430088 0.00773894 
5.73814e-05 -0.0432504 -0.0242598 
-0.0550918 -0.0599672 0.0283065 
-0.0278429 0.0661385 0.0221945 
0.0182772 -0.0791375 0.0277738 
-0.0140344 -0.056005 -0.0114861 
0.0290475 -0.0235674 -0.0233467 
0.000460764 0.0718549 0.0223036 
-0.0255047 0.0389905 -0.0211072 
0.010545 -0.0566125 -0.0118425 
-0.0149302 0.0352727 -0.0240063 
0.0071068 -0.0722753 0.0164119 
0.0011235 -0.0522396 -0.0174129 
0.04691 0.0541874 0.0235953 
-0.00105926 -0.0554334 -0.0131139 
-0.0302488 -0.0372239 -0.0197744 
0.0590597 0.0453198 0.0265682 
-0.039239 0.0653476 0.0265425 
0.0317902 -0.0227995 -0.0242638 
-0.0116341 0.0539251 -0.0129366 
0.0604473 0.0441443 0.0267504 
-0.0695095 0.00596193 0.0110573 
0.0216014 -0.053378 -0.0105051 
-0.0135611 -0.0652244 0.00164386 
0.0761798 -0.00564265 0.0290557 
-0.0730241 -0.0117266 0.027395 
-0.0282099 -0.0439042 -0.0170377 
-0.0703778 -0.0060722 0.0129867 
0.000422551 0.0268531 -0.0235983 
0.00934736 -0.0539658 -0.0147896 
0.0118398 0.0222853 -0.0235887 
0.000975745 0.0472598 -0.0205807 
0.00309263 0.0252594 -0.0235999 
0.0192796 -0.0319915 -0.0232091 
-0.0483064 0.061527 0.0258327 
0.00859456 0.0727088 0.026898 
-0.056733 0.0388142 0.00911461 
0.0271121 -0.0627071 0.00500825 
0.0346695 -0.0375137 -0.0172062 
0.0634871 0.0416574 0.0284353 
-0.055016 -0.0460545 0.0193105 
0.0332594 -0.0520685 -0.00674007 
-0.066825 -0.0393496 0.0296041 
-0.0638361 -0.0487101 0.0268251 
-0.0588146 -0.0301965 0.00385107 
0.050789 -0.0107737 -0.0174044 
0.0287044 0.0149161 -0.0227648 
-0.0437023 -0.0432697 -0.00461356 
-0.0173345 0.0725766 0.0280927 
0.0480983 0.0588429 0.0284558 
-0.0125766 0.0575075 -0.00686517 
0.0604712 0.0378412 0.0160028 
-0.00894404 -0.0621913 -0.00330525 
-0.0548172 -0.0215717 -0.00947796 
0.0662175 -0.0399475 0.0295156 
0.0408883 -0.00929798 -0.0243997 
0.0172948 0.0647436 0.0073475 
-0.0447283 -0.0673389 0.0287102 
0.00243822 -0.0713475 0.017354 
0.00685973 -0.00117581 -0.0231017 
0.0606372 -0.0458646 0.0290544 
-0.0747615 0.0221995 0.026231 
0.0570358 0.00557916 -0.01163 
-0.0164823 -0.0102449 -0.0221228 
-0.0121978 -0.00707328 -0.0230464 
-0.0060887 0.0694756 0.012781 
-0.0389026 0.0187049 -0.0241248 
-0.070602 0.036672 0.0275171 
-0.0277051 -0.0239892 -0.0230294 
0.0365028 0.0545148 0.00421359 
0.053056 0.0083726 -0.0143267 
0.0585832 0.0158188 -0.00569261 
-0.0150079 0.0161445 -0.0231729 
0.0352542 0.0385685 -0.0165023 
-0.0097312 0.0540743 -0.0130537 
-0.0310638 0.042932 -0.0136807 
0.051666 -0.0501267 0.019779 
0.00222268 0.0114621 -0.0232346 
0.0271913 0.0691196 0.0265225 
-0.0411944 -0.0580212 0.0162846 
0.0685274 -0.00637876 0.00690815 
-0.0379529 0.0223155 -0.0226527 
-0.0662187 0.0287752 0.0211351 
0.0143691 -0.0708862 0.0153789 
0.0600193 -0.0163297 -0.00554022 
-0.0537456 -0.054774 0.0282351 
0.00687369 0.0589665 -0.00632532 
0.00822992 0.0628054 0.000334719 
-0.018309 0.0526993 -0.0105549 
0.0270971 -0.0725964 0.0300077 
0.0682145 -0.0333491 0.0290256 
0.0137342 -0.075584 0.0296852 
-0.0152531 0.0700591 0.0216374 
-0.060713 0.00513725 -0.00445045 
0.0646367 0.00515602 0.00127043 
0.069188 0.00239931 0.0108605 
0.0637443 -0.0219036 0.00362784 
0.0341175 0.0316904 -0.0219359 
-0.00317312 -0.0702603 0.00958857 
-0.00231904 0.0328902 -0.0228858 
0.00801082 -0.0479199 -0.0210106 
0.0140739 -0.0267716 -0.0228094 
0.0733142 -0.00482386 0.0264372 
-0.0686514 0.0369218 0.025949 
-0.0453492 0.0643506 0.0281612 
-0.0267196 -0.0683692 0.0206939 
0.0662386 0.0355668 0.0269969 
-0.0262767 0.0191906 -0.0233665 
-0.0351172 0.0584754 0.00853281 
-0.00827656 0.0265624 -0.0225599 
0.0152311 0.0666672 0.0110839 
-0.0172123 0.0744916 0.0262682 
0.0306128 0.00313665 -0.0225783 
-0.0203854 0.00622547 -0.0220083 
0.00846136 0.0617325 -0.00166494 
-0.0634243 -0.035978 0.0245902 
-0.00282242 -0.0124576 -0.0220033 
0.0310863 -0.0661555 0.0248974 
0.0616017 -0.0149237 -0.00180383 
-0.0658338 0.0212265 0.00965478 
0.00915977 0.0700969 0.01596 
0.0224224 -0.0458528 -0.0185231 
-0.0166238 0.0430421 -0.0215402 
-0.0224461 -0.0638514 0.00656975 
0.019229 -0.052618 -0.0136562 
-0.043654 -0.0186604 -0.0200584 
0.00132828 -0.0746758 0.0259698 
0.0317643 -0.0585931 0.00406506 
-0.0365244 -0.0543301 -0.000229552 
0.0734904 -0.0246137 0.0296136 
-0.0253604 0.0343207 -0.0232655 
-0.0583555 0.041312 0.0184532 
-0.0664356 0.0118564 0.00817263 
0.0535303 -0.0305883 -0.00492696 
-0.0299799 -0.0714275 0.0284548 
0.0385275 0.0547737 0.0068352 
0.0737692 0.00816252 0.0276538 
0.0203258 -0.0364524 -0.024346 
-0.0314666 0.0523099 -0.00344562 
0.0502523 -0.0603648 0.0299203 
0.0287176 0.0496756 -0.0105356 
-0.00945589 0.0570336 -0.0096605 
0.0486389 -0.0119492 -0.018024 
-0.0466865 -0.0557965 0.0187767 
0.00491585 0.0196322 -0.0225745 
0.0338183 -0.0337001 -0.0219779 
0.0475505 -0.0441672 0.000683829 
0.0715635 -0.0136137 0.0199075 
0.0300641 0.0356461 -0.0217491 
0.0300518 -0.0211669 -0.0241315 
0.0361003 -0.0638434 0.0203745 
-0.071275 0.0151862 0.0262976 
-0.0179058 -0.0519028 -0.0145866 
0.0787943 -0.0040559 0.0294695 
0.0330413 0.0576832 0.00605748 
-0.00820275 0.0184428 -0.0232849 
-0.0546878 -0.0344869 -0.00098236 
0.0711596 0.010986 0.0219323 
-0.023468 -0.0358178 -0.0234271 
-0.0562457 0.00207281 -0.0111392 
0.0686889 -0.0211695 0.0149581 
-0.0317315 0.0484383 -0.00801212 
-0.0240911 0.0574718 -0.00141946 
-0.0275596 -0.0647412 0.0128871 
-0.051081 0.0275055 -0.00971825 
-0.0341714 0.051047 -0.00285338 
-0.0359297 -0.00542981 -0.0237136 
0.0164483 0.019694 -0.0235592 
-0.00903832 -0.0330915 -0.0228314 
0.0605514 -0.0241401 0.0014596 
-0.0287631 0.0433555 -0.0149618 
-0.0639502 -0.0465732 0.0298965 
0.00227338 -0.0703424 0.0123649 
-0.0195909 -0.0640171 0.00237405 
-0.0709162 -0.022924 0.0277265 
-0.0683237 -0.00847867 0.00810154 
-0.00389986 0.0641274 0.00198403 
-0.0343213 0.00777353 -0.0225684 
-0.0296199 -0.00213969 -0.0224787 
-0.0101376 -0.0772829 0.0284125 
0.0407235 -0.0133179 -0.0243294 
0.0271313 0.0565716 -0.00124363 
0.0251737 -0.0725616 0.0297501 
-0.0404331 0.0457981 -0.0053371 
0.0524463 -0.0423115 0.00558669 
-0.0524316 0.0457447 0.0117359 
-0.0158546 -0.0590897 -0.00585766 
0.0233675 0.025732 -0.0238857 
-0.0386124 0.0659343 0.0288165 
0.0669598 -0.0139992 0.00799799 
-0.0536418 0.030368 -0.0049478 
-0.0091955 0.0696936 0.0187385 
0.0338028 0.0156086 -0.0229249 
-0.0224842 0.0597393 0.00149142 
0.0345561 0.00943575 -0.0228652 
0.0526389 -0.0604181 0.0297488 
0.0059566 -0.0575149 -0.0102671 
-0.0509167 -0.0194777 -0.0144672 
0.0428609 0.0508122 0.0057294 
-0.0373625 -0.0608891 0.0181863 
0.0244931 -0.0496425 -0.0143894 
0.0348041 0.0341192 -0.0184744 
-0.0318089 0.00779678 -0.0232625 
0.0450263 -0.064347 0.0299405 
-0.0482721 0.0192786 -0.0163919 
0.0294451 0.00452091 -0.0234316 
-0.0609713 -0.00969999 -0.00535749 
0.0119703 -0.0527268 -0.01429 
0.0108577 -0.0636769 -0.00234392 
-0.00761101 -0.0800223 0.0273493 
-0.013057 -0.0485454 -0.0190727 
0.0244518 0.0128248 -0.0234297 
-0.0248651 -0.0569253 -0.00431897 
0.00687956 -0.0673443 0.00632082 
0.0354449 -0.00834478 -0.024017 
-0.0394977 0.0496738 -0.00132711 
-0.0306644 0.042832 -0.0155008 
-0.034479 0.0666191 0.0271484 
-0.00126537 0.0209704 -0.0225115 
-0.0434457 -0.0676965 0.0271533 
0.052289 -0.023674 -0.0119144 
-0.0249991 -0.0662035 0.0151453 
-0.0469406 0.0341741 -0.00803788 
-0.0473775 -0.00329817 -0.0197964 
0.0400001 0.0539653 0.00530478 
-0.0698741 -0.0218804 0.0264975 
-0.00727127 0.0340518 -0.0238083 
-0.0299383 -0.0350695 -0.0230012 
0.0708381 -0.022251 0.0277758 
0.0162803 0.0742036 0.0285129 
0.0656786 -0.0468899 0.0266775 
-0.0624687 0.0442349 0.0290957 
-0.00558735 -0.0793868 0.0275892 
-0.0582965 -0.0241618 -0.00350192 
0.0127405 -0.0798839 0.027892 
