ply
format ascii 1.0
comment VCGLIB generated
element vertex 1639
property float x
property float y
property float z
element face 0
property list uchar int vertex_indices
end_header
-0.0325355 0.018 -0.00167342 
-0.0214055 -0.0178569 0.034 
0.0170666 -0.018 0.0106825 
0.00745171 -0.018 -0.0205109 
-0.0311843 0.018 0.0113997 
0.0303382 0.00514717 -0.034 
0.00352409 0.018 -0.00526787 
-0.0266563 0.018 -0.0159231 
0.00828911 0.018 -0.00236879 
0.0475 0.00800651 0.0208087 
-0.012457 -0.00161894 -0.034 
0.0270099 -0.018 0.0141957 
0.0196146 -0.00950341 0.034 
0.0260154 -0.018 0.0226434 
0.024772 -0.018 0.0102342 
0.0475 -0.00226034 0.00555274 
-0.0475 -0.00282362 -0.00842223 
-0.0235034 0.018 -0.00274751 
-0.0189971 -0.018 -0.00123347 
-0.0213796 -0.018 0.0225585 
0.0165249 0.00115477 0.034 
0.0415645 0.018 -0.021929 
0.0102657 0.018 -0.0164434 
-0.00802237 0.018 0.0284281 
0.0289163 0.018 0.0310982 
0.0116329 0.018 0.0241274 
-0.0387021 -0.00454327 -0.034 
0.020903 0.018 -0.00858164 
-0.0348453 -0.018 -0.0102859 
0.0447457 -0.00131468 -0.034 
0.0179536 0.018 0.00685475 
-0.00496328 -0.018 0.00750127 
-0.0475 0.00280704 -0.00520797 
0.0389075 0.00895976 0.034 
0.000823097 -0.0171127 0.034 
0.0342351 0.018 -0.0106706 
0.00293078 -0.018 0.00828963 
0.0475 0.00606642 -0.0323942 
0.0385597 0.014604 -0.034 
0.0356265 0.018 0.0202146 
-0.0475 -0.0155995 -0.0314947 
-0.0127424 0.018 -0.0136848 
-0.00283352 0.00478293 0.034 
-0.0114096 0.018 0.0246097 
-0.0280493 -0.018 -0.0120514 
-0.020691 -0.018 -0.0043443 
0.0280424 8.879e-05 -0.034 
-0.0167548 0.00622016 0.034 
0.0354461 -0.0155438 -0.034 
0.0184871 -0.0113743 -0.034 
0.0419386 -0.018 -0.0234597 
-0.00554561 0.0137521 -0.034 
-0.0359733 0.018 0.00745949 
-0.0384183 -0.018 -0.0125768 
-0.0475 0.00113543 -0.0214441 
0.0174411 0.018 -0.00629617 
0.0475 0.0130746 0.0129976 
0.0475 0.0127754 0.0275515 
0.0475 0.00283344 -0.0129848 
0.0324576 0.00464793 -0.034 
0.0299228 -0.018 0.0236506 
0.0357974 0.012394 0.034 
-0.00548343 -0.018 0.0049592 
-0.0279579 0.018 -0.0262913 
-0.0475 0.00896994 0.0255947 
-0.0287353 -0.0163242 -0.034 
-0.0475 0.000324703 -0.0184775 
-0.0270624 -0.0143174 0.034 
-0.0312956 -0.018 -0.0300109 
-0.0475 0.0112911 -0.00537768 
0.0260189 0.018 -0.0249792 
-0.02522 -0.018 -0.0192483 
0.0410997 -0.0167308 0.034 
-0.0475 0.00567571 -0.017003 
-0.0270204 0.0152343 -0.034 
0.0475 0.0103399 0.00678355 
0.0459758 0.018 -0.0259587 
0.031936 -0.018 -0.0233743 
-0.0305379 0.018 0.00986776 
-0.0313408 -0.0164345 0.034 
-0.0221849 0.018 0.00738765 
0.0338806 0.018 0.0293201 
-0.0094019 0.018 0.00799641 
-0.0460577 -0.018 0.0306558 
-0.0211005 -0.018 0.0179512 
-0.0475 -0.00124151 0.0170342 
-0.0475 0.0154338 0.00835712 
-0.0312518 0.018 -0.0303395 
-0.0475 0.00533235 0.00525594 
-0.0189961 0.018 0.0109632 
0.0475 0.00739776 0.00858787 
-0.00858916 0.00582224 0.034 
0.0426648 -0.018 -0.0312182 
0.0172746 -0.00845478 0.034 
-0.0319554 -0.00485813 0.034 
-0.00199395 0.018 -0.0224722 
0.026397 0.0117491 -0.034 
-0.0213393 0.018 -0.00215041 
0.0151073 -0.0163939 -0.034 
-0.0353007 0.018 0.03199 
0.0475 -0.00784812 0.00730253 
0.0329747 0.0115433 -0.034 
-0.0254822 -0.0150221 0.034 
0.0434022 0.0107063 -0.034 
-0.0371928 -0.00946136 -0.034 
0.0475 0.013662 0.01865 
-0.0384765 -0.0105055 0.034 
0.0343399 -0.0108976 -0.034 
-0.00130635 0.0117971 0.034 
-0.0238321 -0.0110771 -0.034 
-0.00356806 0.018 0.00226701 
-0.0475 0.00960055 0.00818226 
-0.00464662 -0.018 0.0011104 
0.0442991 0.0144149 -0.034 
-0.0475 0.00905638 -0.00338812 
-0.0475 0.00923211 -0.0115966 
0.0475 -0.0179333 -0.00685267 
-0.0199891 -0.0113319 -0.034 
0.0462796 -0.018 0.0119123 
-0.00995687 -0.0107581 -0.034 
0.0270595 0.0160231 -0.034 
-0.0448957 0.018 -0.0153517 
0.0402409 0.00011806 -0.034 
0.00726204 0.018 -0.00176182 
-0.0475 0.00286081 0.033169 
-0.0475 0.00142759 0.00364775 
0.0475 -0.0105675 -0.0273598 
-0.0265866 0.018 0.0241267 
-0.00595507 0.018 0.0242646 
-0.03497 -0.0167844 -0.034 
0.0265095 0.00546919 0.034 
-0.0475 0.00471408 0.00590524 
-0.00113469 -0.00529379 -0.034 
5.74276e-05 -0.018 -0.00170846 
0.00389481 0.0143935 -0.034 
0.0116769 0.00254924 0.034 
0.0395867 0.018 0.0295668 
-0.014246 0.0148948 0.034 
-0.0328489 0.00406015 0.034 
0.0475 -0.00588757 0.0221007 
0.0475 0.00259029 -0.00151846 
0.0110261 0.018 -0.0171675 
0.0475 0.0168421 0.00265896 
0.0466022 0.00218146 -0.034 
-0.0210537 0.00979717 -0.034 
0.0243937 0.018 0.00332786 
0.0473135 0.018 0.0143673 
-0.020891 -0.00923607 -0.034 
-0.043464 0.00347253 0.034 
0.0142333 0.018 0.0320434 
0.00592392 0.018 0.00797258 
0.0363791 -0.018 -0.00888409 
-0.0385158 0.018 -0.024904 
0.00891478 0.018 -0.020088 
0.0475 0.00361766 -0.00752056 
-0.0475 -0.00116134 0.0332827 
-0.0361713 0.0101693 0.034 
-0.0438811 0.018 -0.0208297 
0.0372523 0.018 0.0202686 
-0.0385524 -0.0167697 -0.034 
-0.038257 -0.018 0.000303201 
-0.0475 -0.00802045 -0.0112709 
-0.0200047 0.018 -0.000709239 
0.00657969 -0.018 -0.0320054 
-0.0229584 0.018 0.00748266 
-0.0475 0.0150745 -0.017916 
0.0089236 -0.018 -0.00986214 
-0.00290604 0.018 -0.0268388 
0.0272136 0.018 0.0225988 
0.0475 0.00722812 -0.0329129 
0.00128694 -0.018 0.0114114 
-0.0475 -0.0179766 -0.00599892 
-0.00376254 0.018 -0.0264181 
0.0407325 0.018 -0.0263632 
0.0461144 0.018 -0.0160288 
0.00444393 -0.018 -0.0192319 
0.00513307 0.018 -0.00522844 
0.0475 -0.0117638 0.0171504 
0.00648603 -0.018 -0.00630652 
-0.00990948 -0.018 -0.020014 
0.0299783 0.0048637 0.034 
0.0475 -0.00765007 0.0258798 
-0.0349905 0.018 0.0242496 
-0.0281694 0.018 -0.00609386 
0.00490941 -0.018 -0.033792 
-0.0475 0.00594013 0.0275862 
-0.0385005 0.018 -0.00879135 
-0.0170653 0.018 0.010551 
0.0375114 -0.018 -0.0128182 
0.0475 0.00742048 -0.0244081 
0.0475 0.0163623 -0.0236078 
-0.000893001 -0.018 0.0300938 
0.0290388 -0.018 -0.0124845 
-0.00374992 0.018 0.0166384 
0.0257823 0.0139461 -0.034 
0.00119249 -0.00761554 0.034 
0.0475 0.0122009 0.020271 
0.00471386 -0.018 -0.0306005 
-0.0209671 0.018 0.00345449 
0.0324668 -0.018 -0.0126532 
0.004341 0.018 0.0172405 
0.0475 -0.00871145 -0.000974681 
-0.041698 0.018 -0.023727 
-0.0369038 -0.018 0.0290591 
-0.0382586 -0.018 0.00539019 
0.0159752 0.018 0.00708574 
0.00340046 -0.00406398 -0.034 
-0.0234284 -0.018 -0.00418133 
-0.00959798 -0.018 0.0283753 
0.0252077 0.018 0.00844613 
0.0475 -0.0117198 -0.0165349 
0.00780671 0.018 -0.0326655 
-0.0475 0.0156487 -0.0251632 
-0.0288481 0.018 -0.0303793 
-0.0205499 -0.016588 0.034 
-0.0180045 -0.018 -0.0176479 
0.0132768 -0.018 -0.018281 
-0.00161357 0.018 -0.0278531 
-0.0446421 0.018 0.00933179 
0.0429114 0.016274 0.034 
-0.0475 0.00628108 0.00274599 
-0.0309642 -0.00936572 0.034 
-0.0355675 -0.010655 -0.034 
-0.0304194 0.0127647 -0.034 
-0.0475 0.000146607 0.0157611 
0.031477 -0.018 -0.0212842 
-0.00671696 0.0107199 -0.034 
0.00508807 0.018 0.00966721 
-0.045814 -0.0106496 -0.034 
0.0112277 0.00309309 -0.034 
-0.0375284 0.018 0.0103903 
0.0455446 -0.0115868 -0.034 
0.0349432 -0.018 -0.00608423 
-0.0238934 0.0118179 -0.034 
-0.00340831 0.018 -0.00715989 
0.0352365 0.018 -0.00540142 
0.0387899 0.018 -0.0129526 
-0.00191976 -0.0140439 0.034 
-0.0432952 0.018 0.00318868 
0.00599278 -0.000908014 -0.034 
-0.0148062 0.018 0.00703472 
0.0389595 -0.018 -0.0221463 
0.0352271 0.00274975 -0.034 
-0.0366 -0.018 0.031969 
-0.00477057 0.018 0.0120895 
-0.0475 -0.0130788 -0.0140986 
-0.0319085 -0.018 0.0211526 
-0.0450257 0.018 -0.0144439 
0.0460779 -0.018 0.00965473 
0.0196125 -0.018 -0.00136038 
0.00571205 0.00657838 0.034 
-0.0226102 -0.0167669 0.034 
0.0402441 -0.000817722 0.034 
0.0210295 0.0148624 -0.034 
-0.00599462 -0.0126418 -0.034 
0.00973278 0.018 -0.0205497 
0.0475 0.0179434 0.0165649 
0.0296509 0.018 -0.0113289 
-0.0350793 0.00302462 0.034 
0.0437333 -0.00105527 0.034 
0.0103731 0.018 0.0162142 
0.00433617 0.018 -0.0124822 
0.0475 0.0131631 0.000367038 
-0.0184915 0.018 0.0164103 
0.0153855 0.0125278 0.034 
0.0373123 -0.018 0.0239098 
-0.0259878 0.018 -0.0165242 
-0.0475 -0.0170417 0.0261321 
0.0115751 0.018 -0.0256701 
0.0475 0.0128324 -0.0328243 
-0.0268013 0.018 0.00788077 
-0.0277504 0.00136576 0.034 
-0.0475 -0.00718714 -0.0117926 
-0.0308139 0.018 -0.00185097 
0.0475 -0.0177736 -0.0297769 
0.0364321 0.018 0.0279731 
0.011111 0.018 -0.00800535 
-0.0475 -0.00169682 -0.0321458 
-0.026203 -0.018 0.0167475 
-0.0237307 0.018 0.0306479 
0.00461866 0.0107606 -0.034 
0.0163119 -0.0117376 0.034 
0.0444999 -0.018 0.0125356 
-0.0424732 -0.018 -0.00107734 
-0.0131437 0.0038301 0.034 
0.034421 0.018 0.00959688 
0.0475 0.00152959 0.0237095 
-0.0475 -0.00863356 0.0324126 
0.0275227 -0.0127666 0.034 
-0.0475 -0.0172723 -0.00650966 
0.00767251 0.018 -0.000189573 
-0.0301951 0.018 -0.0145411 
0.0108984 0.018 0.0178118 
0.0188737 -0.018 -0.021206 
-0.0411632 -0.018 -0.0168801 
-0.0121131 0.018 0.0214989 
-0.0463277 -0.00216748 -0.034 
-0.0316876 -0.018 0.000789151 
-0.0475 -0.0155346 -0.00298633 
-0.0312414 -0.018 -0.0122903 
0.00345555 0.00189975 -0.034 
0.0248281 0.018 0.00726472 
0.0475 0.00775564 0.0314631 
-0.00448862 0.0158438 0.034 
0.0475 0.00157223 0.0315877 
-0.0403955 -0.00487947 -0.034 
-0.0251157 -0.00747527 0.034 
-0.0240783 0.018 -0.0151027 
-0.0185154 0.00814524 0.034 
-0.0259623 -0.0044746 -0.034 
0.0237638 0.018 0.0274797 
-0.0251264 -0.0174127 0.034 
8.93471e-05 -0.00181255 0.034 
0.0337748 -0.018 -0.00963701 
-0.0357496 0.018 -0.0256901 
-0.00194545 -0.018 0.0146317 
-0.00227555 0.0179994 0.034 
0.00609322 -0.00506274 -0.034 
-0.0161254 0.018 -0.00321459 
-0.0140157 0.018 0.0191683 
0.0343697 -0.018 -0.0293536 
0.0129696 0.018 -0.0241309 
-0.0252864 0.018 0.0173293 
0.0271334 -0.018 0.0115961 
0.0435132 0.018 -0.00940119 
0.0452628 -0.018 -0.00599373 
-0.0475 0.00697017 -0.0019892 
-0.0475 0.00734513 -0.0300729 
0.00480471 -0.018 0.0168161 
0.0249467 -0.018 -0.0194241 
-0.0475 -0.00953686 -0.0245798 
0.00169705 0.018 -0.0189926 
-0.0385373 -0.018 -0.00653034 
0.0361105 0.000279958 0.034 
0.0475 0.0134456 0.00500693 
-0.00574664 -0.018 -0.00569908 
-0.0315884 0.00810267 0.034 
-0.0431293 -0.00884492 0.034 
-0.00305601 -0.018 0.0256478 
0.0187739 0.018 0.00680014 
0.0263697 0.018 0.0179157 
-0.00202252 -0.0174854 0.034 
-0.032527 0.018 -0.0134678 
-0.0342318 0.018 -0.0268093 
-0.0260534 -0.018 0.0236933 
-0.01965 0.018 -0.0333191 
-0.0475 -0.0154668 -0.0089368 
0.0141436 -0.0117787 0.034 
0.0475 0.0154968 0.00150818 
-0.0475 -0.00753395 -0.00938715 
0.0039769 -0.018 0.0172065 
0.0253641 -0.0147012 -0.034 
-0.0173554 0.00389609 0.034 
-0.0333095 -0.018 0.0204779 
0.0309881 -0.00478436 0.034 
0.00153926 0.018 0.0214192 
0.0114808 -0.018 -0.0141384 
0.00855293 0.018 -0.00527946 
0.0475 -0.00745142 0.0220545 
-0.0281752 0.00996069 0.034 
0.0332101 -0.018 0.030798 
-0.0433073 0.018 0.0256178 
0.0306819 0.018 0.00856973 
0.0365502 0.00430292 0.034 
-0.000161871 -0.012957 -0.034 
-0.0475 -0.00450434 -0.0251813 
-0.0376376 0.0170017 -0.034 
0.0390933 0.000664531 -0.034 
0.0475 -0.0106263 0.0296595 
-0.00982025 0.0101433 -0.034 
0.0475 0.00811321 0.029158 
-0.00715762 0.00873835 -0.034 
-0.0233901 0.018 -0.0169158 
-0.0475 -0.0166468 -0.0132406 
0.000811258 -0.018 -0.0294111 
-0.0341073 0.018 0.0212125 
0.00980258 -0.018 -0.0267737 
-0.0196292 0.00964721 -0.034 
0.00925328 -0.0167288 0.034 
-0.0224612 -0.018 0.0173323 
0.0305219 -0.018 -0.00337975 
-0.0475 0.00292058 -0.0159649 
-0.00493351 -0.018 -0.00332214 
0.0475 -0.0164204 -0.0212472 
-0.0106719 0.0152288 -0.034 
0.0469292 -0.0153558 0.034 
-0.00304989 -0.018 -0.0262464 
0.0428965 -0.018 0.0180934 
0.0101694 -0.0023648 -0.034 
-0.00291939 -0.000105215 0.034 
0.0475 0.00157081 0.00658266 
-0.0368032 0.018 -0.0132244 
-0.034299 0.018 -0.0182565 
0.0459272 -0.0085153 -0.034 
0.0420402 -0.018 0.00718743 
0.0310351 -0.00304138 -0.034 
-0.0358008 -0.018 0.0175983 
-0.033636 0.018 0.032952 
0.00221973 0.018 0.000326523 
-0.0399032 0.018 -0.0131033 
0.00664937 0.018 -0.0216472 
-0.0192718 0.000978827 -0.034 
-0.034054 0.018 0.00680967 
0.0366452 0.018 0.0067248 
-0.00856759 -0.0131461 -0.034 
0.0206257 -0.018 -0.0024017 
0.0391571 -0.0128633 0.034 
-0.0399181 0.018 -0.0329912 
-0.0206122 -0.018 0.0220126 
-0.00138673 0.00625548 -0.034 
0.0270608 0.000198789 -0.034 
0.0475 -0.00472823 -0.00082759 
0.0315895 -0.0173906 -0.034 
-0.00226469 0.018 0.0289756 
0.0475 -0.00702507 0.0322966 
0.0303979 0.018 0.00475619 
-0.0322245 0.018 0.0119688 
0.0128134 0.00432131 -0.034 
0.0323551 -0.0155846 0.034 
0.0385813 0.00457955 0.034 
-0.0159956 -0.0108924 -0.034 
-0.0132776 0.0123295 -0.034 
0.0475 -0.0149083 0.0244836 
-0.0475 0.0140472 0.0035465 
0.0451686 -0.018 0.00922647 
-0.00155281 -0.018 0.0104198 
0.021357 -0.018 -0.0251721 
0.0200667 0.0167408 -0.034 
-0.0214916 0.018 0.00638028 
0.0475 0.0162026 0.0292727 
-0.0386464 0.0027766 -0.034 
-0.0475 -0.00316566 -0.0276367 
-0.0462834 -0.00405224 -0.034 
0.00693195 0.0121203 0.034 
0.00483224 -0.018 0.0211143 
0.0475 0.00855788 -0.0233186 
-0.0265858 0.0129395 0.034 
0.0475 0.0143673 0.0297327 
-0.024196 -0.00306692 0.034 
-0.0460563 -0.018 -0.0122278 
-0.000208376 0.018 -0.01741 
-0.0109252 -0.0107556 0.034 
0.0452553 0.0149849 -0.034 
-0.000881585 0.018 -0.0334561 
0.0222066 -0.011286 -0.034 
0.0105371 -0.018 -0.0297835 
-0.00640893 0.0138958 0.034 
0.0336153 0.018 -0.0135042 
-0.0418978 0.018 0.0320112 
0.00990264 -0.018 -0.00744582 
-0.0400622 -0.0166414 0.034 
-0.0475 0.0131101 -0.0294096 
0.0419524 0.018 -0.00274292 
-0.0397244 0.0173407 -0.034 
0.0447962 -0.018 0.014331 
0.00530036 0.018 0.0218813 
0.0442928 -0.018 -0.0262509 
0.0101317 0.018 0.017452 
0.0127965 0.0141865 -0.034 
0.0100299 -0.00671668 -0.034 
-0.0341044 -0.018 0.026218 
-0.0475 -0.00697618 0.0257554 
-0.0161114 0.0089711 0.034 
-0.0112756 0.018 -0.0177551 
-0.0249259 0.000854183 -0.034 
0.0475 0.000267386 -0.023351 
0.015711 -0.018 -0.00871842 
-0.00784638 -0.018 -0.0214118 
0.00449107 0.018 0.020561 
-0.0368539 -0.018 0.000806544 
0.0475 -0.0069576 -0.0272405 
-0.0310112 -0.018 0.00446534 
-0.0354977 -0.00507445 0.034 
-0.00142296 0.018 -0.000816941 
-0.0466895 0.018 -0.0300588 
-0.0247354 0.017119 0.034 
0.0475 0.00506299 0.0203612 
-0.0278886 0.018 0.0156221 
-0.0475 0.00744583 0.0169925 
-0.0305819 -0.018 0.0299993 
-0.0012587 0.018 0.0102851 
0.038332 0.018 0.0293592 
0.0093781 0.018 0.00991334 
0.033758 -0.018 -0.0225341 
-0.0399579 0.018 -0.0235826 
0.0416624 0.00506021 -0.034 
-0.00551857 0.018 -0.0292723 
0.0286429 0.00372168 -0.034 
-0.0307465 0.0114134 -0.034 
0.00671854 -0.00560146 -0.034 
-0.0475 -0.0167262 -0.0289044 
-0.0226897 0.018 0.00264845 
-0.0225533 -0.018 -0.00243632 
0.025876 -0.018 0.0255756 
-0.0475 0.0101002 -0.0305398 
0.0475 -0.017713 0.0067464 
-0.00648517 0.018 0.017493 
0.026541 -0.0153498 0.034 
0.0475 0.0109778 0.0198199 
-0.00481187 0.0126069 -0.034 
-0.0225459 -0.00458836 0.034 
0.0318616 0.00871606 0.034 
0.0475 -0.00508263 0.0164374 
0.00444371 -0.018 -0.0282745 
-0.0137538 0.018 0.00977265 
0.0355512 -0.0151155 0.034 
-0.0247975 0.018 -0.0054732 
0.034016 0.018 0.0264895 
-0.0468167 0.018 0.0131836 
-0.0144347 -0.018 0.0208936 
-0.0304615 0.018 -0.0308932 
0.022372 -0.0093585 -0.034 
0.0475 0.0138596 0.0267611 
-0.0424863 -0.018 0.0109838 
-0.0160298 0.0122485 0.034 
-0.00513034 0.018 -0.0243723 
-0.0323837 -0.018 0.0188067 
-0.00484435 -0.00722193 -0.034 
-0.035983 0.018 0.00113197 
0.0225804 0.018 -0.0116863 
0.0475 0.00451697 0.0160149 
-0.0123859 0.018 0.0179911 
0.0157364 -0.018 0.0298029 
0.00451915 -0.018 -0.0184793 
0.02484 -0.018 0.0152272 
0.00839532 0.018 -0.0317811 
-0.00686839 0.0128562 -0.034 
-0.0414907 0.018 0.000116345 
-0.0429393 -0.018 -0.00285231 
-0.043764 0.018 -0.00713621 
-0.0258415 0.018 0.0324404 
0.0129408 0.00768815 0.034 
0.0327936 -0.018 -0.00371263 
-0.0415507 0.018 0.00897985 
0.00635952 0.018 0.00732024 
-0.036973 -0.00295647 0.034 
0.0475 -0.0101945 -0.0016428 
-0.0152402 -0.018 0.0325588 
-0.0393514 0.0123409 0.034 
0.00463011 0.0159549 0.034 
-0.0399728 -0.018 0.0199353 
-0.0454986 0.00297618 -0.034 
-0.0240346 -0.018 -0.0150468 
-0.0302051 0.000220975 0.034 
-0.0162248 0.018 0.0104131 
0.0362232 -0.018 -0.0182802 
-0.0475 0.0067804 0.0210542 
-0.0110168 0.018 0.0211788 
-0.0220053 -0.018 0.0254697 
-0.0278238 0.018 0.0137689 
-0.00308439 0.018 0.0186042 
0.0475 -0.0029628 0.00748132 
-0.0475 -0.0152199 0.00270727 
0.0193555 -0.018 0.0233734 
-0.00936018 0.018 0.0149456 
-0.0344414 0.018 0.0225482 
-0.0111143 -0.0116783 0.034 
0.0475 0.00730192 0.0268472 
0.00537307 -0.018 0.0153026 
-0.0216571 0.018 0.0119373 
0.0182517 0.018 0.00296671 
0.0152241 0.0105306 -0.034 
-0.0339078 -0.0124235 0.034 
-0.0275382 -0.018 -0.0182384 
0.0425016 0.018 0.0151327 
0.0226659 0.018 -5.33061e-05 
-0.0402412 -0.00945276 0.034 
0.0195255 0.018 0.0216821 
0.0444943 0.00998362 0.034 
0.0451029 0.018 0.0196102 
-0.0179458 -0.018 -0.00903799 
0.0282561 0.018 0.003692 
0.026746 -0.00993124 0.034 
-0.0176422 0.0169844 -0.034 
-0.0357568 -0.00109682 0.034 
0.0475 0.0115388 0.0207126 
0.00257724 -0.00474825 0.034 
0.0475 0.017009 -0.0104083 
0.0330797 -0.018 -0.0112559 
0.0475 0.00147639 -0.0281938 
0.0249869 0.0026532 0.034 
0.0457966 0.00693916 0.034 
-0.0475 -0.0151101 0.0177451 
-0.00423136 -0.018 0.00808884 
-0.0475 -0.00563766 -0.0141633 
0.036846 -0.0120639 -0.034 
0.0195918 0.00067596 0.034 
-0.0392513 -0.018 0.0261677 
0.0130786 0.018 0.0288832 
-0.0416625 0.018 0.0297419 
-0.0342561 -0.018 0.00886859 
0.0102874 0.018 -0.0146623 
-0.0243359 0.018 0.0299329 
0.0475 -0.00404735 -0.0195319 
0.00346009 0.0162054 0.034 
-0.0144037 0.00405984 0.034 
0.0110469 -0.0154832 -0.034 
0.0237026 -0.018 0.0125129 
0.0354084 0.00225779 0.034 
0.0204084 -0.018 -0.00974825 
-0.0017067 -0.018 -0.0269998 
-0.00609886 -0.0095085 0.034 
-0.017185 -0.018 0.00703752 
0.0159555 -0.018 -0.0253171 
0.0407652 0.018 -0.0183894 
0.0258918 -0.018 0.0246078 
0.0475 0.00891925 0.00856848 
0.0114509 0.018 -0.0338488 
0.0341987 -0.00878604 0.034 
-0.016394 -0.000903906 0.034 
-0.0475 -0.00597024 0.0327123 
0.0475 -0.0144128 0.0303335 
-0.0475 -0.0130053 -0.0207554 
0.0129244 0.0071092 -0.034 
0.0171509 -0.018 -0.0247629 
-0.0475 -0.0124543 -0.0224999 
0.0475 -0.00631512 -0.00705996 
-0.00119784 -0.018 -0.0171376 
0.0353593 0.018 -0.0163237 
-0.0247853 -0.018 -0.0289583 
0.0344232 -0.0139664 -0.034 
0.0209752 0.018 0.0220915 
0.000766038 0.018 -0.0188542 
-0.0205164 -0.00677816 0.034 
0.0329225 -0.018 0.0241439 
-0.00959745 0.018 -0.0313157 
0.0369367 -0.0120357 0.034 
0.0128382 -0.018 -0.0165559 
0.0224916 -0.00812853 0.034 
0.0106635 -0.018 0.0310091 
0.0475 -0.00124142 0.0324398 
0.0334031 0.00028373 -0.034 
0.000479532 -0.018 0.0272788 
-0.0126544 -0.018 -0.0131211 
0.0455727 -0.018 0.00410342 
-0.00973643 -0.018 -0.0245202 
0.0475 0.01326 -0.00417982 
0.0112515 0.018 0.0260487 
0.0053039 0.000644974 -0.034 
0.0171036 -0.018 0.0233073 
-0.0403341 0.018 -0.008164 
-0.00807439 -0.00154726 0.034 
0.0475 -0.00609851 -0.0195953 
-0.0144363 0.018 0.0317746 
0.00845382 0.018 -0.0134852 
0.014434 -0.018 -0.000517681 
-0.0023006 0.018 0.00670853 
0.0475 -0.00432475 0.00402939 
-0.0329372 -0.018 -0.0304064 
0.00245098 -0.00516201 -0.034 
0.00875569 0.00636535 -0.034 
-0.0307756 0.00852281 0.034 
0.0408265 -0.00954789 -0.034 
-0.0391141 -0.018 0.00398894 
-0.0372192 0.000437705 -0.034 
-0.0149703 0.018 0.00374917 
0.0400757 -0.0105219 0.034 
-0.0247694 0.018 0.030879 
-0.0428631 -0.018 0.0185991 
-0.0465529 0.018 0.0222752 
0.00659776 -0.018 -0.00845803 
-0.0181129 0.00145026 -0.034 
-0.0475 -0.00864741 -0.0193902 
-0.00751332 -0.00343206 -0.034 
-0.0316207 0.018 -0.0286941 
0.0475 -0.00237824 0.0109432 
0.0171956 0.018 -0.0204997 
0.043623 -0.018 0.0143663 
-0.0208936 0.0129299 0.034 
0.0368593 0.00754946 0.034 
0.0185359 0.0114954 -0.034 
-0.0294914 0.018 -0.020263 
0.00882344 -0.018 0.00659939 
-0.0475 -0.0165411 0.00340002 
-0.029778 0.000978466 0.034 
0.0124756 0.0178259 -0.034 
-0.0475 0.0132365 -0.0306533 
-0.0302997 -0.00591023 -0.034 
0.0109612 -0.00514464 -0.034 
0.0218501 -0.018 -0.00439008 
0.0188688 0.018 -0.0277825 
-0.016729 0.018 0.0329442 
0.0475 -0.000296114 0.00390549 
0.00872892 0.018 -0.0275585 
-0.0475 -0.00677688 -0.0066539 
-0.0203013 -0.018 0.00104274 
0.0439669 -0.018 -0.0231044 
-0.0335025 0.018 0.0026415 
-0.0287687 0.018 -0.0196048 
0.0326349 0.018 -0.031698 
-0.0475 -0.0157222 0.0320292 
0.0263615 0.018 0.0329842 
-0.0287744 -0.00679785 0.034 
0.0329623 0.018 0.0050065 
0.0397798 0.018 0.00760268 
0.018252 0.0159222 -0.034 
0.0404299 0.018 -0.0270843 
0.0436225 -0.018 0.0084639 
0.00559327 0.0114318 -0.034 
0.0302245 0.015675 0.034 
-0.0361639 0.018 -0.0153896 
-0.0465044 -0.00498283 0.034 
-0.030939 0.018 0.0157644 
-0.0156181 0.018 0.0308537 
0.0320389 -0.00596263 0.034 
0.0475 -0.00696612 0.00861801 
-0.0335661 0.018 -0.0188325 
-0.0475 -0.00766808 -0.0271463 
-0.00347466 0.00107983 0.034 
0.0451615 0.00738696 0.034 
-0.00984698 0.018 -0.025671 
-0.0442369 0.018 0.000443555 
-0.0327675 0.018 -0.0191205 
-0.0139332 0.00758449 -0.034 
0.00105567 -0.0172873 -0.034 
-0.00800554 0.0127969 0.034 
0.0357503 0.00392128 0.034 
0.00351524 -0.018 -0.0141618 
0.00238864 0.018 -0.0193047 
0.0475 0.00420068 -0.003044 
0.0241083 -0.018 -0.0163415 
0.0464412 0.018 -0.0266171 
0.0475 0.00827256 0.00793944 
0.0475 -0.0067528 0.0216755 
0.0155423 -0.0109868 -0.034 
0.0389084 0.0179839 0.034 
-0.039624 0.0101317 -0.034 
-0.0475 -0.00324988 -0.00742785 
0.0408972 0.018 0.0299069 
-0.041206 0.00299256 0.034 
0.0418141 0.018 -0.0244692 
0.029595 0.0130432 -0.034 
0.0372692 0.018 -0.00640365 
0.0170838 0.018 0.00634282 
0.0144485 0.0113902 0.034 
-0.0402417 0.018 0.019097 
0.0177824 -0.000342093 -0.034 
0.0233711 -0.00964968 -0.034 
-0.0260264 0.018 0.026434 
0.0253602 -0.018 0.00289725 
0.0475 0.00862887 0.00559137 
0.0458732 0.018 -0.000705535 
0.0361577 0.018 -0.0219816 
-0.026715 -0.018 -0.00687746 
0.0475 -0.000487654 -0.014596 
0.0458424 -0.00376783 0.034 
-0.0390679 -0.018 -0.00584983 
0.016649 0.0169029 0.034 
-0.0461253 -0.018 0.0286812 
0.0414703 0.018 -0.00379884 
0.034029 -0.00236426 0.034 
-0.0475 -0.0160834 0.00280596 
-0.0475 -0.00520234 0.0107851 
0.0452377 0.018 -0.0118601 
-0.0419424 0.0143789 -0.034 
-0.0475 -0.0164266 0.0267028 
0.0273607 0.018 -0.0160089 
0.0170695 0.00621339 -0.034 
-0.0185912 0.018 0.0320624 
0.0467479 0.018 -0.00716622 
-0.0475 -0.00813849 -0.00758776 
-0.0357796 -0.018 0.00677659 
-0.0256395 0.018 -0.0277746 
0.0475 -0.0112701 0.0319082 
0.0475 -0.0129577 0.0242961 
0.0240546 0.018 -0.00700438 
-0.0475 -0.0059878 0.000769966 
0.0376228 0.018 -0.0262369 
-0.0216119 -0.018 0.00229026 
0.0475 0.00696235 0.0327822 
-0.0292577 0.018 0.00651932 
0.0291616 -0.018 -0.00828507 
0.0244785 0.018 -0.00017756 
-0.0259306 0.018 -0.00643952 
-0.0228412 0.018 -0.0276468 
0.0165102 -0.018 -0.0068142 
-0.0365341 -0.018 -0.00421243 
-0.0465711 0.018 -0.00989648 
0.0418068 -0.018 0.0303389 
0.0148133 0.00761783 0.034 
0.000886325 0.018 -0.00107741 
0.0433544 0.0152 0.034 
-0.0232006 0.018 0.0048073 
0.0241565 -0.018 0.0266859 
-0.027211 -0.0107894 0.034 
0.0157419 0.00391487 -0.034 
-0.0439309 0.018 0.0119256 
0.0394793 0.00967451 0.034 
0.00394844 -0.00272642 0.034 
0.0353629 0.018 -0.00300366 
-0.0012642 -0.018 -0.0147624 
-0.0473329 -0.018 -0.0265194 
-0.00262824 0.0174216 -0.034 
-0.0475 0.00510193 0.0106528 
-0.0475 -0.00908851 0.0143215 
-0.00570474 -0.0117593 -0.034 
-0.0140937 -0.018 0.0106431 
0.00386963 -0.018 -0.0150151 
0.0475 0.0123196 0.0250567 
-0.0219347 0.018 -0.0016722 
0.0107682 0.018 0.00759631 
-0.0475 0.00384136 0.0045614 
0.0149945 -0.00398839 0.034 
0.0148941 -0.018 0.0200717 
0.0475 0.00154418 0.0307774 
0.0475 0.011558 -0.000763953 
-0.0262187 0.018 0.0222924 
0.0475 -0.00543849 0.00486054 
0.0267503 0.00316479 -0.034 
0.0475 -0.0173664 -0.00393682 
-0.0264361 0.018 -0.028512 
0.021732 0.018 -0.0210254 
-0.0433465 0.0131059 -0.034 
-0.0475 -0.0109852 0.00550117 
-0.00988915 0.00261418 0.034 
0.0475 -0.000915288 -0.00909421 
0.0387797 0.0146445 0.034 
0.0394689 0.00821827 0.034 
-0.0475 -0.00725105 0.0245445 
-0.00106565 -0.00994425 0.034 
-0.0267136 0.0045774 0.034 
0.0475 -0.00521032 -0.0155355 
-0.0475 -0.0114846 -0.0141708 
-0.0368495 0.0165503 -0.034 
-0.042885 0.00247957 -0.034 
0.0279642 -0.018 0.0101184 
0.0367128 0.018 -0.0214613 
-0.0475 0.0121869 -0.0261668 
0.0178471 0.018 0.00840807 
0.00684374 -0.00675637 -0.034 
-0.0188921 -0.018 0.0184033 
-0.0281402 0.018 0.00656494 
0.0438422 -0.0019079 0.034 
0.0333647 0.018 -0.00156423 
-0.0465696 0.0163722 -0.034 
-0.00227481 -0.018 0.0076738 
-0.0475 -0.00527285 -0.0109813 
-0.0190908 -0.018 -0.0177292 
0.0475 0.0130445 0.025486 
-0.0118683 0.018 0.0106251 
0.00577833 -0.0134671 0.034 
0.000555508 -0.018 0.0216078 
0.020034 -0.018 -0.0188522 
0.00392862 0.018 -0.000936874 
-0.0441724 -0.018 -0.0260251 
0.0271306 -0.018 -0.021466 
-0.0475 0.000702178 -0.0243282 
-0.0179891 0.00485592 0.034 
-0.0475 -0.0175178 0.020731 
0.0475 0.0139737 0.0197885 
-0.0260642 0.00626626 0.034 
0.0416002 -0.00319164 0.034 
0.0415637 -0.000342293 -0.034 
0.00493654 -0.018 0.00838969 
-0.0475 0.0156988 0.0191794 
-0.0475 0.00414186 0.0118589 
-0.0254447 0.018 0.0227281 
0.0276926 0.018 0.0150703 
0.0475 0.0140069 -0.0135888 
0.0475 -0.0106649 -0.0300889 
-0.016395 0.018 0.0262275 
0.0187814 0.018 -0.00547794 
0.0193393 -0.018 -0.0113711 
0.0142859 0.018 0.0266548 
-0.0232658 0.018 0.0211404 
0.0133044 -0.018 -0.0173891 
0.00248259 -0.018 0.0323034 
-0.0142953 -0.018 -0.028334 
0.0410181 -0.018 0.00820691 
0.0388236 -0.018 0.0253074 
0.0353773 -0.018 0.0224948 
-0.0475 0.0165851 -0.0127478 
-0.0277932 -0.018 -0.00886908 
-0.0378922 -0.018 -0.00863596 
-0.0281188 0.0136281 0.034 
0.0221826 0.018 0.00907598 
0.0183256 0.018 0.0231142 
-0.00659968 -0.018 0.0168139 
0.0475 0.000722338 -0.00195859 
-0.0234196 -0.00261755 -0.034 
0.0475 0.0156857 0.00868207 
-0.0475 -0.00845183 0.00183418 
0.00204647 0.018 -0.0211858 
-0.013401 -0.018 -0.019251 
-0.0410299 0.0175168 -0.034 
-0.026777 -0.0115469 0.034 
-0.0396485 -0.018 -0.032594 
-0.0310736 0.018 0.0169278 
0.0115915 0.018 0.0192227 
-0.0298806 0.018 -0.0250088 
-0.0129967 0.018 -0.0251239 
-0.021454 0.00795983 -0.034 
0.0139434 0.018 -0.00337136 
0.0132344 -0.018 -0.00806785 
-0.0106896 0.00296652 0.034 
-0.0186887 0.018 0.00540087 
-0.035857 0.00822884 0.034 
-0.0475 -0.00360612 0.0076245 
0.0396722 -0.018 0.0127182 
0.00570081 0.018 0.00109513 
0.00312249 0.018 0.0316711 
-0.0161029 -0.018 -0.00715743 
8.01645e-05 -0.0128825 0.034 
0.0434863 0.018 0.0255796 
-0.0346779 -0.00754413 0.034 
0.0412987 -0.018 0.020078 
0.0446054 -0.016588 -0.034 
0.0243465 -0.018 -0.0333873 
-0.0258776 0.000235682 -0.034 
-0.0475 0.0172239 -0.0229063 
0.0475 -0.00492196 0.0111708 
-0.0368401 0.018 -0.015063 
0.0423774 0.00418483 0.034 
-0.019783 -0.018 0.0167349 
0.000448872 0.018 0.0155027 
-0.0136122 -0.018 -0.0149743 
-0.0376694 0.018 -0.0328223 
-0.035568 0.018 -0.028715 
0.0240187 -0.018 0.0236944 
0.0104238 0.018 -0.00972913 
0.0175643 0.00541021 -0.034 
0.0213148 0.018 0.00868938 
0.0123026 0.000114741 -0.034 
-0.0475 -0.00546314 0.0185785 
-0.0310552 0.018 -0.0226662 
0.0285791 0.018 -0.000757284 
0.0475 0.0132706 -0.0209748 
0.00587583 -0.018 0.0242218 
0.0223065 0.018 0.0326303 
0.0427145 0.018 0.0216183 
-0.0475 -0.0111134 -0.0330011 
-0.0183571 -0.018 0.00691303 
0.00879267 0.018 0.0117976 
-0.0386222 0.018 0.0283585 
0.0475 0.00295367 -0.0239791 
0.00613193 -0.018 0.0326013 
-0.0475 -0.00195785 0.0164801 
-0.0287419 0.018 0.029031 
-0.0121133 -0.00143306 0.034 
-0.0475 -0.0133237 -0.0105746 
-0.0201826 -0.018 0.00299644 
0.0475 0.000545278 -0.0280932 
0.0381927 0.0108257 -0.034 
-0.0194079 0.018 -0.0308822 
0.0252835 0.018 -0.0307696 
0.0206959 -0.018 -0.021088 
0.0101753 -0.018 -0.0145044 
0.0449333 -0.018 0.0110098 
-0.0475 -0.00843054 -0.0232591 
-0.0163976 0.0107985 -0.034 
-0.0475 0.0162415 -0.00561996 
-2.62074e-05 -0.018 0.0029563 
-0.0383845 -0.018 0.0220577 
0.00130737 -0.0159586 -0.034 
-0.030001 0.018 0.000317302 
-0.00319406 -0.018 -0.0211825 
-0.0251385 0.018 0.00171319 
0.0246344 -0.018 -0.0257097 
-0.0454613 0.018 -0.0232028 
0.0059234 0.018 0.0259551 
-0.0204955 0.018 -0.0187717 
-0.00978479 0.018 0.013969 
-0.0456481 0.0122737 0.034 
0.0475 -0.00656447 -0.0325562 
0.0118596 -0.018 -0.0237386 
-0.0221714 -0.01714 -0.034 
-0.0154682 -0.00268419 0.034 
-0.00348381 -0.0158601 0.034 
0.00466649 0.018 0.00480107 
-0.0475 -0.000290629 -0.0290047 
-0.0274055 0.018 -0.0224371 
0.00645794 -0.00765729 -0.034 
0.00227222 0.018 0.0232271 
-0.0475 0.0115536 0.00390887 
-0.0311888 -0.018 -0.00256191 
0.0475 -0.0061174 0.0132002 
0.00673397 -0.00987785 -0.034 
-0.0352894 -0.018 0.0191222 
0.0216569 0.018 -0.0160886 
-0.0475 0.000215563 -0.0220329 
0.036417 0.018 0.0205688 
0.0383226 -0.018 0.0233612 
-0.0475 0.00879742 0.028527 
0.0304201 0.018 -0.0223232 
-0.030476 0.018 0.00629794 
0.0287482 -0.018 -0.00320493 
-0.00897263 -0.018 -0.0331371 
0.029396 0.0113422 -0.034 
-0.0475 -0.0142416 -0.0307567 
0.0475 -0.000910985 -0.017033 
0.0475 0.0159557 0.0224062 
0.000958339 -0.00146122 0.034 
0.0406713 -0.000961602 -0.034 
-0.0475 0.0164165 0.0300806 
-0.0223736 0.018 -0.0316085 
-0.0475 -0.0158341 0.0194993 
0.0326819 0.0152532 0.034 
0.0419215 -0.0107523 0.034 
-0.0300163 0.018 -0.0221385 
0.0475 -0.0132691 -0.0206981 
-0.0277583 0.018 -0.0166135 
0.0475 -0.0138939 0.00226715 
0.0129498 -0.018 -0.0193855 
-0.0281275 -0.00577605 0.034 
0.0112253 -0.018 0.0274213 
-0.0426509 -0.00709023 0.034 
-0.0475 -0.0112675 -0.0279535 
0.0475 0.000712822 -0.000818016 
0.0475 -0.0101686 0.0281554 
0.00452872 0.018 -0.026658 
-0.0378696 -0.00526111 -0.034 
0.0285984 0.018 -0.00469039 
-0.0475 -0.0128395 0.00597338 
0.00114257 -0.018 -0.010052 
-0.011466 -0.018 0.0270999 
-0.0475 -0.00275936 0.00743461 
0.0475 0.0116318 -0.0222414 
-0.003469 -0.018 0.0078738 
-0.0475 0.00322081 0.0036782 
0.00319155 -0.00843932 0.034 
-0.0219323 0.018 0.0169671 
-0.0310804 0.018 -0.00999366 
0.00538577 -0.0112149 -0.034 
-0.0366842 0.018 -0.00226676 
0.0271626 0.0119232 -0.034 
0.0475 -0.00323789 -0.00169459 
0.0281458 -0.018 -0.026645 
0.0446135 -0.0104285 0.034 
0.0442511 0.018 -0.00398913 
0.00499685 0.018 0.000604437 
-0.00297868 0.018 0.033669 
0.0392021 0.00785199 -0.034 
0.0015007 -0.018 -0.0224216 
0.0475 -0.00723961 0.0308496 
-0.0180188 0.0167823 0.034 
-0.0471685 0.00965736 0.034 
0.0174245 0.0169124 -0.034 
0.00671383 0.018 0.0255748 
-0.0475 -0.00864188 -0.00881192 
0.0262508 -0.018 -0.00255363 
-0.0475 0.0147889 -0.0154739 
-0.000111114 -0.018 -0.0173893 
0.0148858 0.018 -0.0321521 
0.00197228 0.018 0.0168937 
0.0453838 0.018 0.0264006 
-0.0291102 -0.0151124 0.034 
-0.0355272 0.018 -0.00894887 
0.0295104 -0.018 -0.0050697 
0.0215762 0.018 0.00242085 
0.0475 -0.00538686 0.0145461 
0.0257579 -0.018 0.000110767 
-0.0123458 0.018 -0.0301405 
0.0475 -0.0129535 0.00674725 
-0.0133624 -0.00695935 0.034 
-0.0475 -0.00301978 -0.0106183 
0.00693146 0.0138738 -0.034 
-0.0475 0.000720848 0.00400821 
-0.0237537 -0.000333162 -0.034 
0.0128482 -0.00782739 0.034 
-0.0177561 0.018 0.0333659 
-0.0427595 0.018 0.0111161 
0.0337852 -0.00526203 -0.034 
0.0389541 -0.011462 0.034 
0.0282636 -0.018 0.00509488 
-0.0429963 -0.0061289 -0.034 
-0.0474622 -0.018 -0.0184121 
-0.0305394 0.018 -0.027218 
-0.00909852 -0.018 0.0208551 
-0.0389907 0.0138509 -0.034 
-0.00043629 0.018 -0.0166208 
-0.0475 0.0178975 0.0112184 
0.0136914 -0.018 -0.016308 
-0.0361935 -0.00835448 0.034 
0.0475 0.0141245 -0.00916731 
-0.00865452 -0.018 -0.0127083 
-0.013623 -0.018 -0.00489265 
-0.0143501 0.00945604 0.034 
0.0475 0.00521328 0.0276376 
0.0421421 0.018 -0.0120252 
-0.0341944 0.018 -0.0149888 
0.0475 -0.00873714 -0.0280023 
0.0475 -0.0110541 -0.0173211 
-0.0407237 -0.018 0.0300451 
-0.00162616 0.018 -0.0015866 
-0.00214404 0.00185995 0.034 
0.038849 0.018 0.0160242 
0.0294782 -9.27916e-05 -0.034 
0.0198818 0.018 0.00289765 
-0.0264526 -0.018 0.0194643 
-0.0165456 0.00428841 -0.034 
-0.0472214 0.0127597 -0.034 
-0.00290487 0.018 -0.0297594 
-0.0162967 -0.0116694 -0.034 
-0.0187121 0.000441408 0.034 
-0.00717632 0.016866 0.034 
0.0394294 0.018 0.00449839 
0.0287924 -0.00941179 0.034 
0.00267916 0.00408133 -0.034 
0.0077837 -0.018 -0.00149206 
-0.0475 -0.00427361 -0.0133922 
0.000158701 0.0134999 -0.034 
0.0446754 0.018 0.0058024 
0.0450811 -0.018 -0.0190666 
0.0236108 0.018 -0.0240221 
0.000427202 -0.00967159 0.034 
-0.0475 -0.0125 -0.0239813 
-0.00970319 0.018 0.033607 
0.0250435 0.018 0.0160587 
-0.0475 0.00532863 -0.022846 
-0.0475 0.0110939 0.0318254 
0.0102741 -0.018 0.0259565 
-0.0293183 -0.018 -0.0231951 
-0.0139965 0.018 0.021722 
0.00924433 -0.00627912 -0.034 
-0.0261851 -0.0127261 -0.034 
0.00221933 0.018 0.0145465 
0.0358374 -0.018 -0.00443123 
-0.0200099 -0.018 -0.0236047 
-0.0272364 0.018 0.0303606 
0.0317284 0.018 0.00197013 
-0.0403681 -0.018 -0.0255368 
-0.0472585 -0.018 0.0150563 
-0.0195468 -0.018 -0.0138338 
-0.0176096 0.0080242 0.034 
-0.00813287 -0.018 0.0222364 
0.04301 -0.018 0.0217434 
0.0466772 0.018 0.0235836 
0.0106186 0.018 0.00338878 
-0.0204304 0.018 0.0143536 
0.0329723 0.018 0.0059829 
0.0409886 -0.018 -0.00369104 
-0.0134572 0.018 -0.0106403 
-0.041364 0.018 0.0226775 
-0.0354078 -0.0145184 -0.034 
-0.02351 -0.00750199 -0.034 
-0.00881616 -0.00502898 0.034 
0.0172458 -0.00318339 0.034 
-0.0338862 -0.00574269 -0.034 
0.0118336 0.018 -0.0189193 
-0.00155661 0.018 -0.0321426 
0.0305338 0.00633619 -0.034 
-0.0287989 -0.018 -0.0259955 
-0.0129776 -0.0143682 -0.034 
0.0230614 -0.00566983 0.034 
0.00971209 0.018 -0.00682111 
-0.0203287 0.018 0.0120947 
0.023877 -0.018 0.0106093 
0.0475 0.00719967 -0.00553626 
0.0231934 -0.018 -0.0232288 
0.011114 0.018 -0.00201162 
0.0154896 0.018 -0.0277946 
0.0418553 0.018 0.0337722 
0.0160905 -0.00036359 0.034 
0.0377206 -0.018 0.00137076 
-0.0475 -0.00333068 0.0155595 
0.0219478 -0.018 0.0079853 
-0.0215811 -0.018 0.0233839 
-0.00986911 0.018 0.0211985 
0.0230049 -0.018 0.0317045 
-0.0230053 -0.00138153 -0.034 
-0.00562167 0.00379382 0.034 
0.0317675 -0.00581446 -0.034 
-0.0325445 0.018 -0.0176901 
-0.0240149 -0.018 -0.0270353 
-0.0396794 0.018 0.0295934 
0.00867641 -0.018 -0.013781 
0.0438073 0.00448542 -0.034 
0.0475 0.0159638 0.0233168 
-0.0475 -0.00171984 -0.0131878 
0.0273236 -0.018 0.0237729 
-0.0406175 -0.018 0.0312571 
0.0323079 0.0159442 0.034 
-0.0202525 -0.00909635 0.034 
0.0475 0.00818836 -0.0103933 
-0.03954 0.00869043 0.034 
0.0420001 -0.018 -0.00584617 
0.0287737 0.018 -0.0128175 
-0.0218747 -0.018 -0.0119846 
-0.0475 -0.0112176 0.00882476 
-0.0475 -0.0059042 0.0100792 
-0.0362055 0.00412378 0.034 
0.0090012 0.00488758 -0.034 
0.0231209 -0.018 -0.0151102 
-0.00388746 0.0122046 -0.034 
0.000531483 -0.018 0.0111517 
0.00383786 0.00879591 0.034 
0.000176368 0.00219559 0.034 
-0.0414365 -0.018 -0.022504 
0.0475 -0.00449616 -0.00401494 
-0.0366709 -0.018 -0.0137298 
0.0175273 -0.018 -0.02722 
0.0475 0.0134304 -0.0335108 
-0.0475 -0.0052354 -0.00608936 
0.00159445 0.00763696 -0.034 
-0.00767104 -0.0147369 -0.034 
-0.0475 -0.0141825 -0.0230809 
0.038366 -0.018 0.000977233 
-0.0209523 0.0161804 0.034 
0.0470183 0.018 -0.0302266 
0.0338599 -0.018 -0.0121635 
0.0382818 0.018 0.0189101 
-0.0475 0.000688529 0.0106988 
-0.0275575 -0.00230441 0.034 
-0.0322764 -0.018 0.0202597 
0.0462804 0.018 0.000308882 
-0.0236135 0.018 -0.0243593 
0.0259722 0.014456 0.034 
0.0211632 -0.000948124 0.034 
0.0475 -0.00605372 0.0171476 
-7.70317e-05 -0.018 -0.000802719 
-0.00341561 -0.018 -0.000961248 
-0.0475 -0.00369965 -0.0190751 
-0.0328254 -0.018 -0.0116535 
0.0475 0.0155228 -0.0273689 
0.0343884 -0.0102215 0.034 
-0.0175 -0.00400239 0.034 
-0.0423551 -0.018 0.000917062 
-0.0475 0.0159247 -0.0138133 
0.0310674 0.018 0.00937267 
0.0303826 -0.018 -0.0261368 
0.0045588 -0.018 0.0244005 
-0.00445374 -0.00846948 -0.034 
0.0363125 0.0156241 -0.034 
0.0391998 -0.018 -0.0207349 
0.0327499 -0.000352964 0.034 
0.0464977 0.018 -0.00875897 
-0.025162 0.018 0.0141748 
0.0150804 0.018 0.0225126 
0.0354704 0.018 -0.000392204 
-0.027961 -0.018 0.0112935 
0.0103785 0.018 -0.0119774 
0.0475 -0.00402371 0.0118351 
-0.0124668 0.018 0.000761626 
0.0475 -0.00654936 -0.0216026 
0.037191 0.0110063 -0.034 
-0.0142121 0.018 0.0264064 
-0.0263415 0.018 0.0169187 
0.0273633 0.00602088 0.034 
0.0372298 0.0149848 -0.034 
-0.00363564 0.018 -0.0338759 
0.00103435 -0.00294624 -0.034 
0.0367052 -0.018 0.0114562 
-0.0475 -0.0174821 0.0312818 
-0.0475 -0.0127858 -0.0216372 
-0.0309303 0.00587031 0.034 
0.0416868 -0.018 -0.0296388 
0.0387185 0.018 -0.0067679 
0.00952668 0.00998257 0.034 
-0.00565985 -0.018 0.0299667 
-0.0475 0.00924667 -0.0321349 
-0.0183807 0.018 -0.00517087 
0.0108085 -0.0111192 -0.034 
0.00354373 0.0129698 0.034 
-0.0299327 -0.018 -0.022176 
0.0473939 0.018 0.00990834 
-0.0404574 -0.018 0.0328316 
-0.0475 -0.00605353 0.00711718 
0.0310261 -0.018 0.00156399 
-0.0377413 0.018 0.00291513 
-0.0470318 -0.018 0.0183015 
-0.0292163 -0.00401595 -0.034 
0.024927 0.0135069 -0.034 
0.0328187 -0.00138088 0.034 
0.0424454 -0.0086164 -0.034 
-0.031587 0.0115711 -0.034 
-0.0467189 -0.018 0.0294263 
0.0456593 -0.018 0.0244107 
-0.00368191 -0.0124428 -0.034 
-0.0030847 0.00665469 0.034 
-0.00903636 0.0123177 0.034 
0.0290871 -0.018 -0.00141034 
0.0272813 -0.018 0.0178901 
-0.0475 0.000840404 0.00662205 
-0.0178023 0.018 0.0126588 
0.00414073 -0.000434617 -0.034 
0.0419919 -0.018 0.00496295 
-0.0417503 0.0166939 -0.034 
0.0452411 0.018 -0.0177563 
-0.0475 -0.00437292 -0.0109775 
0.0156208 0.018 0.0319501 
0.0475 -0.0116892 0.00610354 
-0.0423739 0.000355205 -0.034 
-0.0360456 -0.018 0.0188675 
-0.0196266 -0.018 0.00926303 
-0.0183612 0.018 0.0120414 
0.0475 0.00588754 -0.0292562 
0.0475 0.00605659 -0.0188617 
0.00588701 0.018 -0.00746291 
0.0132303 0.018 0.0321485 
-0.00270342 -0.0160226 0.034 
0.0279047 -0.018 -0.0107072 
-0.0154182 0.018 0.0262154 
-0.0254369 -0.018 0.00897151 
0.0475 0.00387838 0.0269191 
0.031164 0.018 -0.0311306 
0.0475 0.00707619 0.0290032 
0.0296837 0.018 -0.0147001 
0.010207 -0.018 0.015222 
0.0450985 -0.00403072 -0.034 
0.0475 0.0136943 -0.032492 
0.0198963 -0.017631 0.034 
0.021718 0.018 0.0213248 
0.0111082 -0.0121813 0.034 
-0.0370546 0.00716464 -0.034 
0.00558251 -0.017559 0.034 
0.0197619 0.00328105 -0.034 
0.0475 -0.00362067 0.0239963 
-0.0475 0.000883501 -0.0157902 
-0.0258516 -0.018 -0.0232372 
-0.00452846 -0.00240476 -0.034 
0.00938131 -0.0168875 -0.034 
0.0162608 0.018 -0.00497909 
0.0475 -0.00240106 -0.0134363 
0.0178728 0.018 -0.0136521 
-0.0475 -0.0101528 0.0292612 
-0.00336342 0.018 -0.0191321 
0.0206312 0.018 0.000689838 
-0.0475 0.00589036 -0.00862844 
0.00196471 -0.018 0.00902097 
0.0210989 -0.00730465 -0.034 
0.0475 -0.013391 -0.0231603 
-0.010234 0.018 -0.0214378 
0.0475 -0.017726 -0.0242255 
-9.99713e-05 0.018 -0.0326818 
0.0475 0.00367019 -0.0242918 
0.0475 -0.00949463 -0.0178154 
-0.0137338 -0.00234517 0.034 
0.0475 -0.00348158 0.0187507 
-0.0475 -0.0102978 0.00231217 
-0.027242 0.0111991 0.034 
0.0124978 -0.0016023 0.034 
-0.0475 -0.0118468 0.0324974 
-0.0412481 -0.000592435 0.034 
-0.0475 0.00857997 0.02283 
0.0475 -0.00883686 -0.00476764 
-0.0475 -0.00697691 -0.021838 
0.0475 0.013516 -0.00823587 
0.0393774 0.018 0.0332627 
-0.00323689 0.018 -0.0289741 
-0.0444741 0.00282658 -0.034 
-0.0468918 0.00659873 0.034 
-0.0320245 0.018 -0.0195577 
0.0016173 0.018 0.0080739 
-0.0356209 0.00460343 0.034 
0.0440294 -0.018 -0.00379819 
0.0349854 -0.018 0.0332125 
0.0293555 -0.018 0.0246533 
0.0475 0.00450786 0.0124671 
-0.0322998 0.018 0.018582 
0.0238849 -0.018 0.00750971 
-0.0356701 -0.018 -0.000605317 
-0.0475 -0.011754 -0.00143566 
0.0475 0.0115899 -0.0178469 
0.0292861 0.018 0.0110713 
0.0475 0.00587447 0.00371899 
-0.0450281 0.00529378 0.034 
0.00972929 -0.018 0.012541 
-0.0475 0.000180676 -0.0109067 
0.0261182 0.018 0.023694 
0.0181405 -0.018 -0.018134 
0.00647061 0.018 -0.0239748 
-0.0250967 -0.018 -0.0206306 
0.0475 -0.0121262 0.0328076 
-0.0325195 -0.018 0.00905992 
0.0276413 -0.018 0.0131058 
-0.03966 0.0116198 0.034 
0.0331948 -0.018 0.0275331 
0.0475 0.0168116 -0.0262491 
0.0120665 0.0111602 -0.034 
-0.0217724 -0.018 0.00314903 
0.0475 0.00610385 -0.00647555 
0.0475 -0.0139894 -0.0291321 
-0.0271535 0.00999979 -0.034 
0.0475 -0.00923646 0.0168073 
0.00211092 -0.018 0.0106402 
0.0197713 -0.0155611 0.034 
0.046627 0.018 -0.0176947 
0.0247366 0.00856978 -0.034 
-0.0475 0.00907934 -0.0132391 
-0.0100327 -0.018 0.0303105 
-0.00412017 0.018 -0.0191936 
-0.0356197 -0.018 0.0019493 
-0.017546 0.00328647 -0.034 
-0.0276712 -0.018 0.0262116 
0.0462165 0.018 0.00891933 
0.00303233 0.018 -0.00415352 
0.0119848 -0.018 0.0316457 
-0.0101825 0.00926672 -0.034 
-0.0475 -0.0115934 0.0136506 
0.0179122 0.0057927 0.034 
0.046046 -0.0147584 0.034 
-0.0475 0.00200384 -0.0247923 
-0.0440166 0.018 0.0101933 
-0.0130335 -0.018 -0.0310611 
0.0425116 0.018 -0.00752473 
0.0475 -0.0024299 0.0101486 
0.0331161 -0.00956219 0.034 
0.0226919 0.018 0.0195379 
0.0167731 0.018 -0.014546 
-0.00661297 0.00599117 -0.034 
-0.0431935 0.018 -0.024988 
-0.0433457 -0.00178303 -0.034 
0.0447154 0.018 0.00338357 
0.0411762 0.018 -0.0310078 
0.0184048 0.00763114 0.034 
0.045516 -0.018 0.0320333 
-0.0103109 -0.018 -0.00377894 
-0.0475 -0.00436435 -0.00750107 
-0.0475 -0.00296921 0.0099159 
0.0221992 -0.018 -0.0194697 
0.00598113 0.018 0.0122613 
0.0132041 0.018 -0.0101445 
-0.00183188 -0.018 0.0255663 
-0.00599912 -0.0131928 0.034 
0.0360245 0.018 0.0142648 
-0.0161875 -0.018 0.0110675 
0.0475 0.00343466 -0.0211272 
-0.00362234 -0.018 -0.00362173 
-0.00606144 -0.018 0.00321961 
-0.00394169 -0.018 -0.0218102 
-0.0369494 -0.018 -0.0242739 
-0.0448183 -0.0106471 -0.034 
0.0475 -0.0083936 -0.0323175 
0.0475 0.00805332 0.0165044 
0.000454653 -0.018 0.0198989 
0.0394444 0.0136372 -0.034 
0.0225404 0.00382444 0.034 
0.00285409 -0.018 -0.0215358 
0.0475 -0.0167944 0.0205119 
-0.0418719 0.00337039 -0.034 
-0.03827 0.018 0.0323442 
0.0161977 0.00261544 0.034 
-0.00221357 -0.018 0.0114349 
0.0095839 0.018 0.0302346 
0.00530792 -0.018 0.0234575 
-0.0193925 -0.00288318 0.034 
0.00584234 0.018 0.027631 
0.0382183 -0.007945 -0.034 
0.0202905 -0.00565692 -0.034 
0.0168613 0.018 0.0329881 
0.0475 0.0141926 -0.0257776 
0.0205655 -0.012754 0.034 
0.0475 0.00597975 0.00283462 
0.00164108 -0.00698411 0.034 
0.0115695 0.018 0.00399063 
-0.0110996 -0.018 -0.00419713 
-0.0143977 0.018 0.00575714 
-0.0475 0.0159296 0.0216447 
-0.0314383 0.018 0.0262678 
0.0475 0.00286381 -0.0140864 
0.0175216 -0.00490161 -0.034 
0.0288889 0.0101283 0.034 
-0.0419213 -0.0124393 0.034 
0.0347847 -0.018 0.0179421 
-0.0395969 -0.018 -0.00324083 
-0.0450716 -0.018 -0.00104879 
0.0254713 0.018 0.0297606 
-0.0437641 0.018 -0.00368967 
0.0228552 -0.018 -0.0113916 
-0.0475 0.000142288 -0.00736345 
0.012486 -0.010174 0.034 
-0.0447125 0.018 -0.0174515 
0.0467112 0.018 0.0222752 
-0.0146227 -0.018 0.00376103 
-0.0314297 -0.018 -0.0195582 
0.0150396 -0.018 0.0256708 
0.0110483 0.018 0.0113692 
-0.0474263 -0.00775406 0.034 
0.0475 0.00978966 0.021154 
0.019235 0.018 -0.00739564 
0.0471425 0.0162138 0.034 
-0.0389397 -0.018 -0.00109875 
0.0475 0.0169142 0.0131587 
-0.0396788 0.018 0.00718621 
-0.0269189 -0.018 0.00400635 
0.0416306 0.018 0.0323856 
0.00125977 0.018 0.00677923 
0.0333767 -0.018 0.0294606 
-0.0238475 0.018 0.0159773 
-0.00813695 -0.0171158 0.034 
-0.00363119 -0.018 -0.0172397 
0.0465762 0.00991411 0.034 
-0.0458849 -0.018 -0.017519 
-0.0462252 0.018 -0.0310246 
-0.0475 -0.00171564 -0.0253847 
0.0311325 0.018 0.0255354 
-0.0114337 0.018 -0.0152831 
-0.0220631 0.018 0.016192 
-0.0326221 -0.018 0.0228955 
-0.0475 -0.00452045 -0.0118217 
-0.0475 0.00420821 0.0159807 
0.0147245 0.018 0.00346958 
0.0207581 -0.018 -0.00397667 
0.042313 0.0154534 0.034 
-0.016182 0.0159848 -0.034 
-0.0475 -0.013094 0.0160354 
-0.0475 0.0131886 0.000570063 
0.0459083 -0.0136669 0.034 
-0.0170826 -0.014744 0.034 
-0.0475 -0.00370796 -0.00901384 
0.0153538 -0.00288584 -0.034 
0.0475 -0.00609035 -0.0163519 
0.0250902 0.018 0.0282444 
-0.0194009 -0.018 -0.0156146 
-0.0475 -0.00790684 0.0296928 
-0.0475 -0.00389874 0.00224894 
0.00382719 0.00197113 0.034 
-0.0475 -0.0160782 -0.0235352 
-0.046746 0.018 0.0118193 
-0.0305722 0.018 -0.0156126 
0.0242089 -0.00197264 -0.034 
-0.0475 0.0130017 0.0235946 
0.00985286 -0.018 -0.0167547 
0.0330616 0.0147719 -0.034 
-0.0234755 0.018 0.0220796 
0.018825 -0.018 -0.00101836 
0.0187707 -0.018 -0.00816592 
0.0475 0.013989 -0.0235546 
0.0102442 -0.018 -0.0110257 
-0.0470301 -0.018 0.0134846 
0.0306442 -0.0170816 -0.034 
0.0291684 0.018 -0.0154898 
0.0475 -0.0134229 0.0320037 
0.0152231 -0.018 0.0143831 
0.0103359 -0.0148863 -0.034 
-0.0467015 0.018 0.0266194 
0.0186999 -0.0104935 -0.034 
-0.0283768 -0.0104275 0.034 
0.0378867 -0.0119252 -0.034 
0.0475 0.00613215 0.0195895 
-0.0468018 0.018 -0.0228925 
0.00899868 0.018 0.00769954 
0.0270478 -0.018 0.00900269 
-0.0124024 -0.0138492 -0.034 
0.0229133 -0.018 -0.0258261 
-0.0379853 -0.018 -0.0282321 
-0.0380147 -0.018 -0.0231716 
-0.0475 0.00135822 0.0329585 
-0.0168425 0.018 -0.0243622 
-0.00941979 -0.018 0.0140748 
-0.00296259 -0.0119993 0.034 
0.0136269 -0.018 0.0102529 
0.0475 0.0153085 -0.0248379 
-8.98242e-05 0.018 -0.0281203 
-0.0195013 0.018 -0.0152557 
0.0457389 -0.00783094 0.034 
0.0148959 -0.00356409 -0.034 
-0.0413067 0.0162203 0.034 
-0.00770399 -0.018 -0.022334 
0.028448 0.018 0.025026 
-0.0338233 0.018 -0.0259853 
0.0112558 -0.018 -0.00413141 
0.011409 -0.018 0.00369681 
0.028417 0.018 -0.00391537 
0.0406878 0.018 0.0322449 
-0.0130899 0.00685998 0.034 
0.00575633 -0.018 -0.00463295 
-0.0250123 -0.018 -0.0296721 
0.0475 0.0100894 -0.0131168 
0.0296679 -0.018 0.0192982 
-0.0309612 0.018 0.0221188 
-0.00304201 -0.0060616 -0.034 
-0.00222844 -0.0137124 -0.034 
0.0475 -0.00793744 -0.0301264 
-0.0273865 0.00061205 0.034 
0.0304952 -0.013805 0.034 
-0.00394091 -0.018 -0.0132156 
0.0475 0.00893544 -0.0044122 
0.0475 0.00964371 0.0240163 
0.0475 -0.0132505 0.0109691 
-0.0316539 0.018 -0.0118952 
0.039786 0.018 0.0117662 
-0.0373458 0.018 0.0251574 
-0.00542306 0.018 0.0193131 
-0.0304734 -0.018 -0.0093694 
-0.0453436 -0.0125735 0.034 
-0.0015194 0.00781944 -0.034 
-0.0375459 -0.018 -0.00432778 
-0.0128751 0.018 0.0210815 
0.0287474 -0.018 0.0114539 
-0.0150553 0.00750406 -0.034 
-0.0289163 0.018 0.00546197 
0.0435467 0.000187158 -0.034 
0.0421396 0.0125008 0.034 
0.00682873 0.018 0.028097 
0.0472645 0.018 -0.032374 
-0.000350124 0.018 0.0155394 
-0.00362455 -0.018 0.00627691 
-0.0131045 -0.018 -0.0185569 
0.0101433 -0.018 -0.0261007 
-0.0433778 -0.018 0.00745581 
-0.0203337 -0.00989134 0.034 
0.0473924 0.0110117 0.034 
-0.00988001 -0.00969767 -0.034 
-0.00671211 0.0100499 0.034 
-0.0409723 -0.018 -0.0320989 
0.0295544 0.011987 0.034 
0.0143106 0.00880571 -0.034 
-0.0342979 -0.018 -0.0301178 
-0.0329089 -0.018 -0.012711 
0.0475 -0.006318 0.00912441 
-0.0331826 0.018 0.0072584 
0.0475 -0.0120831 0.00855077 
0.00884165 0.0102526 -0.034 
0.0128701 -0.018 0.00734667 
-0.0048002 0.018 -0.00747816 
-0.00561523 -0.018 -0.00440099 
-0.0199109 0.0107032 0.034 
-0.0080401 0.004965 0.034 
-0.024868 0.018 0.00432403 
-0.0263732 -0.0039378 0.034 
-0.0336946 -0.018 0.0281671 
0.0432247 -0.0142102 0.034 
0.0251031 -0.018 -0.0167509 
0.0330002 0.0125142 -0.034 
-0.0374224 -0.00411764 0.034 
-0.00855653 -0.018 0.00126002 
0.00263108 -0.00333517 -0.034 
0.00140157 -0.0132101 0.034 
0.0147128 0.0171826 -0.034 
-0.0165306 0.018 0.0143233 
-0.0173985 0.018 -0.00724243 
-0.0475 -0.0103324 0.0252346 
0.00798396 0.018 0.030222 
-0.0105596 -0.018 -0.0222355 
0.00679173 -0.018 0.00322836 
0.0296978 -0.018 -0.0282332 
-0.0128301 -0.018 0.0269458 
0.0219154 0.000488587 0.034 
-0.0259524 0.00642716 -0.034 
0.0455352 -0.015158 -0.034 
0.0222693 -0.018 0.0246514 
0.0107901 -0.018 0.0142347 
-0.0475 -0.012766 -0.00462709 
0.0435154 0.018 0.0205089 
0.018889 -0.00187994 -0.034 
0.0431928 -0.018 0.0206579 
-0.0186369 -0.018 0.0293833 
0.0465127 0.018 -0.0233683 
